0.056274 0.058637 0.025340 0.763969 -0.173992 0.621352 
0.030331 0.095129 0.041959 0.595551 0.265907 0.758032 
-0.022232 0.167389 -0.011047 0.492874 0.360690 0.791819 
-0.054326 0.136577 0.030796 0.746818 0.290274 0.598334 
-0.050007 0.150447 0.011758 0.836817 0.197607 0.510577 
-0.061629 0.137406 0.035474 0.684869 0.234000 0.690072 
-0.031937 0.159507 0.001917 0.546776 0.118768 0.828812 
-0.063446 0.132148 0.040687 0.686602 0.305520 0.659724 
0.036868 0.092199 0.036745 0.739742 0.230258 0.632268 
-0.072843 0.156137 -0.033911 -0.908272 -0.298583 -0.293070 
0.038987 0.064069 0.033030 0.627802 0.043722 0.777144 
-0.063661 0.148800 -0.020600 0.912159 -0.388001 -0.131987 
0.015394 0.064844 0.051304 0.448345 -0.178909 0.875773 
0.021396 0.064551 0.047308 0.550119 -0.182149 0.814979 
0.026510 0.064924 0.043972 0.573036 -0.164101 0.802933 
0.030236 0.065066 0.041598 0.595862 -0.156401 0.787710 
0.033129 0.064222 0.039738 0.649353 -0.143280 0.746867 
0.036789 0.065027 0.036687 0.686561 -0.098761 0.720333 
0.056313 0.065078 0.025221 0.621302 0.323423 0.713710 
0.059136 0.064474 0.021136 0.903315 0.233460 0.359887 
-0.011068 0.167098 -0.016781 0.516615 0.471617 0.714624 
-0.060520 0.146205 0.036667 0.651164 0.251264 0.716137 
0.019453 0.066574 0.049164 0.533531 -0.173865 0.827717 
-0.028678 0.158132 0.000509 0.622754 -0.111501 0.774432 
0.025302 0.098957 0.043428 0.433804 0.392874 0.810842 
-0.034998 0.152158 0.000082 0.566915 -0.676622 0.469882 
0.014665 0.070627 0.052831 0.429040 -0.122448 0.894948 
0.020291 0.071041 0.049883 0.536414 -0.149645 0.830582 
0.023070 0.070299 0.047383 0.559608 -0.148796 0.815291 
0.026369 0.070624 0.044179 0.584753 -0.132821 0.800264 
0.032831 0.070761 0.040136 0.646493 -0.104851 0.755681 
0.036883 0.070672 0.036595 0.724914 -0.085258 0.683542 
0.039888 0.070563 0.032581 0.774681 0.013564 0.632206 
0.057954 0.069479 0.019834 0.796296 0.471359 0.379123 
-0.064170 0.063724 0.026868 -0.379082 -0.839136 0.390061 
-0.091950 0.114216 0.014926 -0.907492 -0.413277 -0.075232 
0.035162 0.081908 -0.017250 0.698291 0.046292 -0.714315 
-0.086241 0.119271 -0.001175 -0.737684 -0.200487 -0.644692 
-0.029440 0.174958 -0.005800 0.609067 0.026976 0.792660 
-0.017529 0.165418 -0.011493 0.384289 0.526050 0.758679 
-0.061787 0.117789 0.040914 0.634811 -0.202110 0.745766 
0.030189 0.072366 0.041880 0.608137 -0.108982 0.786316 
-0.082210 0.149486 0.002880 -0.743509 0.469840 -0.475862 
-0.076027 0.175704 -0.050694 -0.765986 -0.375569 -0.521740 
-0.065234 0.061474 0.021135 -0.390303 -0.876434 0.282007 
-0.026657 0.110394 -0.019007 -0.025010 0.549503 -0.835117 
-0.081354 0.077916 0.026805 -0.779440 -0.525177 0.341558 
0.021417 0.118723 -0.008936 0.444422 0.691357 -0.569662 
0.014935 0.075930 0.053619 0.410173 -0.036027 0.911296 
0.020989 0.076161 0.050605 0.519657 -0.081736 0.850456 
0.026840 0.076209 0.045919 0.603768 -0.117936 0.788388 
0.033679 0.076074 0.040517 0.671081 -0.072768 0.737805 
0.037342 0.076031 0.036678 0.773636 -0.041252 0.632285 
0.040032 0.076306 0.032835 0.831934 -0.014726 0.554679 
0.041905 0.076876 0.029609 0.839119 0.034565 0.542848 
0.043809 0.076380 0.025864 0.870238 0.123286 0.476955 
-0.045241 0.118472 -0.014205 0.023495 0.634460 -0.772598 
0.045677 0.076809 0.020819 0.863314 0.302541 0.403927 
-0.050165 0.137714 0.020762 0.896805 0.361446 0.255144 
-0.003271 0.111563 -0.020355 0.007805 0.496341 -0.868093 
-0.048324 0.145111 0.007578 0.918979 -0.372324 0.129821 
0.031083 0.077532 0.043228 0.638865 -0.082011 0.764935 
-0.046855 0.145222 0.002884 0.803132 -0.559243 -0.205492 
-0.014172 0.105410 -0.022580 -0.040892 0.489696 -0.870934 
0.047035 0.075398 0.014874 0.757549 0.640388 0.126580 
-0.061143 0.140542 0.035618 0.700425 0.156518 0.696352 
0.027278 0.082371 0.045924 0.577170 0.025248 0.816234 
0.030921 0.082550 0.043025 0.646774 -0.010624 0.762607 
0.034304 0.082541 0.040291 0.691612 -0.009168 0.722211 
0.037035 0.082466 0.036910 0.792394 0.001297 0.610009 
-0.079995 0.147989 -0.000835 -0.822103 0.370387 -0.432389 
-0.077444 0.069015 0.009620 -0.730784 -0.677806 -0.080835 
0.040436 0.082700 0.032602 0.850726 0.020386 0.525213 
0.041748 0.082733 0.030252 0.876535 0.036456 0.479956 
0.043689 0.082551 0.026384 0.922409 0.060083 0.381511 
0.045441 0.082547 0.020714 0.953607 0.131241 0.270941 
-0.082281 0.116295 0.048285 -0.376302 -0.544614 0.749528 
-0.084473 0.094739 -0.003452 -0.869776 0.080030 -0.486914 
-0.020271 0.168003 -0.019393 -0.413761 -0.415041 -0.810273 
-0.074272 0.066850 0.019041 -0.633969 -0.741570 0.219447 
0.026747 0.088242 0.045831 0.516245 0.163731 0.840645 
0.030872 0.088257 0.043015 0.633711 0.117036 0.764665 
0.034492 0.088305 0.040370 0.704871 0.124570 0.698312 
0.037248 0.088126 0.036639 0.779731 0.120828 0.614345 
0.039927 0.088094 0.032667 0.855935 0.106378 0.506023 
0.041903 0.087778 0.029081 0.900895 0.121402 0.416712 
0.002647 0.112302 -0.019871 0.074371 0.452240 -0.888790 
-0.070331 0.145500 -0.020558 -0.290226 -0.908761 -0.299870 
-0.074945 0.137879 -0.006533 -0.461053 -0.048514 -0.886045 
-0.026697 0.114299 -0.015990 -0.008485 0.658346 -0.752667 
-0.086992 0.113518 0.004104 -0.832675 -0.241061 -0.498540 
-0.014219 0.174013 -0.025981 -0.334570 -0.341716 -0.878233 
-0.022156 0.157852 -0.008617 0.405288 -0.902873 -0.143393 
-0.011587 0.164129 -0.016305 0.549100 -0.808109 -0.213188 
-0.009974 0.169338 -0.024776 -0.069226 -0.608604 -0.790449 
-0.082875 0.143405 0.001867 -0.766087 0.275587 -0.580657 
0.020376 0.035441 -0.002872 0.330120 -0.903842 -0.272197 
0.019127 0.036334 -0.009177 0.510600 -0.825851 -0.239284 
0.018446 0.036388 -0.013479 0.589502 -0.727728 -0.350570 
0.014953 0.034773 -0.015494 0.413086 -0.872504 -0.260954 
0.022120 0.037203 0.034232 0.419279 -0.873840 0.246190 
0.039271 0.038287 0.008547 0.383885 -0.916147 -0.115357 
0.039755 0.039855 0.002614 0.390615 -0.833864 -0.389988 
0.022189 0.038061 -0.004464 0.347376 -0.891044 -0.292181 
0.017990 0.036907 -0.016183 0.589502 -0.727728 -0.350570 
0.015415 0.039244 -0.021286 0.460497 -0.626661 -0.628680 
0.020802 0.100118 -0.021339 0.365050 0.413220 -0.834258 
0.044600 0.040906 0.009274 0.498484 -0.858516 -0.120269 
0.043563 0.041136 0.004270 0.477023 -0.790159 -0.384835 
0.038138 0.041114 -0.001479 0.335061 -0.693517 -0.637784 
-0.047881 0.135207 0.008858 0.887520 0.446843 -0.112422 
0.021727 0.040429 -0.009644 0.594146 -0.720747 -0.357092 
0.020674 0.040596 -0.014444 0.660079 -0.656558 -0.365004 
0.019258 0.041168 -0.019507 0.595724 -0.626762 -0.502277 
-0.088574 0.112913 0.039586 -0.647625 -0.701010 0.298608 
-0.026793 0.106457 -0.021850 -0.090695 0.454541 -0.886096 
0.048149 0.042859 0.014559 0.573209 -0.814564 0.088978 
0.052121 0.046165 0.008965 0.652067 -0.741250 -0.159237 
0.048044 0.043065 0.007246 0.549198 -0.819853 -0.161932 
0.046094 0.043413 0.002844 0.506777 -0.769143 -0.389353 
0.028500 0.100485 -0.016810 0.495371 0.385217 -0.778598 
0.026946 0.039583 -0.003346 0.339579 -0.786371 -0.516049 
-0.090786 0.117838 0.006473 -0.859606 -0.246433 -0.447603 
-0.062721 0.167567 -0.047063 0.949719 0.250250 0.188170 
-0.079953 0.106813 0.031684 -0.738153 -0.369051 0.564739 
0.052744 0.046213 0.013955 0.682619 -0.728811 0.053526 
0.050453 0.046626 0.002645 0.616311 -0.639893 -0.459018 
-0.032258 0.117324 -0.013327 0.079748 0.707662 -0.702037 
0.027247 0.045597 -0.009271 0.572048 -0.605290 -0.553521 
-0.014646 0.094208 -0.033734 -0.083301 0.654847 -0.751157 
-0.041155 0.167220 -0.010818 -0.596586 0.200016 -0.777225 
-0.072139 0.156112 -0.038410 -0.912310 -0.243182 -0.329474 
0.045680 0.047422 -0.003112 0.467986 -0.471226 -0.747619 
0.023941 0.043325 -0.009698 0.643455 -0.654093 -0.397654 
0.021084 0.046259 -0.020530 0.615550 -0.490289 -0.617020 
-0.034853 0.035155 -0.030735 -0.277424 -0.491059 -0.825771 
-0.069987 0.066307 0.025915 -0.513339 -0.775043 0.368498 
-0.074707 0.149891 -0.020145 -0.767404 -0.607360 -0.205438 
-0.084545 0.137250 0.000743 -0.732887 0.272542 -0.623375 
0.054951 0.048418 0.016398 0.770105 -0.630186 0.099012 
0.026456 0.046626 -0.014104 0.703940 -0.547311 -0.452680 
0.022528 0.044466 -0.015768 0.691063 -0.562710 -0.453640 
0.033054 0.093814 -0.016054 0.620085 0.273321 -0.735385 
0.052648 0.069499 0.002973 0.467151 0.690488 -0.552265 
0.052854 0.058134 -0.002780 0.652813 -0.055459 -0.755486 
-0.057146 0.067180 0.036171 -0.275103 -0.644266 0.713610 
-0.065154 0.157167 -0.051549 0.525084 -0.636093 -0.565396 
-0.049319 0.133682 0.001199 0.722401 0.514307 -0.462195 
-0.032962 0.105950 -0.020673 -0.087472 0.408105 -0.908735 
-0.064954 0.155656 -0.045631 0.907386 -0.407364 -0.103465 
-0.039046 0.150445 -0.003545 0.364580 -0.907733 -0.207610 
0.057436 0.051618 0.014518 0.854195 -0.514675 0.073899 
0.057413 0.052253 0.009034 0.850063 -0.499028 -0.168418 
0.053611 0.050097 0.002042 0.706295 -0.460609 -0.537575 
0.051220 0.052012 -0.002184 0.605799 -0.319986 -0.728434 
0.047123 0.051581 -0.004813 0.440258 -0.223046 -0.869726 
0.033443 0.047576 -0.006382 0.381641 -0.526746 -0.759532 
0.002809 0.118297 -0.015821 0.053424 0.624216 -0.779423 
-0.014784 0.101250 -0.023841 -0.049671 0.562911 -0.825024 
-0.062004 0.167422 -0.052717 0.997780 0.066326 -0.005985 
0.055915 0.052838 0.003397 0.804587 -0.374553 -0.460814 
0.033480 0.051851 -0.008253 0.587691 -0.445096 -0.675655 
0.028781 0.050117 -0.015793 0.694767 -0.499489 -0.517504 
0.025620 0.048554 -0.019055 0.692275 -0.491226 -0.528633 
-0.008635 0.118406 -0.014611 -0.095186 0.680284 -0.726742 
-0.014832 0.117675 -0.014701 -0.052686 0.685490 -0.726173 
-0.061514 0.145712 -0.004813 0.643195 0.219563 -0.733547 
0.023253 0.120830 -0.004562 0.508760 0.733273 -0.451080 
-0.040153 0.034272 -0.027515 -0.551227 -0.398324 -0.733135 
0.030266 0.049687 -0.010729 0.618552 -0.519852 -0.589192 
0.032007 0.111334 -0.007374 0.641345 0.554784 -0.529992 
-0.021100 0.120417 -0.010248 -0.074718 0.793437 -0.604049 
-0.020499 0.117125 -0.014080 -0.047769 0.710740 -0.701831 
-0.009103 0.038360 -0.025776 0.101980 -0.718359 -0.688157 
-0.052514 0.112290 -0.017103 -0.147714 0.421092 -0.894909 
0.020235 0.123713 -0.002471 0.448240 0.790703 -0.416978 
-0.070175 0.034754 -0.001789 -0.833574 -0.178784 -0.522676 
-0.003403 0.114844 -0.017693 0.004949 0.529113 -0.848537 
0.031025 0.053713 -0.014052 0.737026 -0.415530 -0.533036 
0.026819 0.052848 -0.020339 0.698615 -0.404023 -0.590511 
-0.014746 0.120673 -0.010585 -0.118302 0.746529 -0.654751 
0.027090 0.106214 -0.014676 0.467829 0.442047 -0.765330 
0.046554 0.069799 0.002285 0.700491 0.338248 -0.628411 
-0.003001 0.100676 -0.023581 0.091846 0.593315 -0.799713 
-0.075587 0.076212 0.033468 -0.631338 -0.530453 0.565714 
0.059738 0.057300 0.015174 0.980105 -0.186630 0.067559 
0.059539 0.057872 0.008617 0.963526 -0.174109 -0.203233 
0.057209 0.058053 0.002535 0.831209 -0.077327 -0.550556 
-0.014291 0.123147 -0.007467 -0.162974 0.821474 -0.546461 
0.021183 0.112303 -0.014083 0.402331 0.502180 -0.765471 
0.034745 0.056505 -0.010714 0.680927 -0.293224 -0.671087 
0.024914 0.082516 -0.024588 0.529936 0.110409 -0.840820 
-0.038223 0.114521 -0.016178 0.031216 0.546081 -0.837151 
-0.081948 0.076167 0.020832 -0.816774 -0.540404 0.202098 
-0.026956 0.039225 -0.029394 -0.008522 -0.219069 -0.975672 
0.037704 0.059340 -0.008520 0.693498 -0.213748 -0.688021 
0.033030 0.058631 -0.014729 0.728936 -0.268229 -0.629846 
0.021812 0.051587 -0.023649 0.516848 -0.356898 -0.778134 
-0.020495 0.093591 -0.033168 -0.330401 0.635185 -0.698123 
-0.087222 0.113521 0.044067 -0.516371 -0.679326 0.521418 
-0.027154 0.035161 0.050927 -0.314363 -0.534967 0.784210 
-0.050382 0.106302 -0.019460 -0.152922 0.312706 -0.937459 
0.026661 0.058507 -0.021913 0.647883 -0.194791 -0.736413 
0.009750 0.094593 -0.028045 0.289963 0.538124 -0.791419 
-0.020552 0.122391 -0.007547 -0.118588 0.837391 -0.533585 
-0.066802 0.090919 -0.017474 -0.345049 0.046361 -0.937439 
-0.085616 0.094210 -0.001091 -0.908464 0.052412 -0.414664 
-0.091527 0.114440 0.020449 -0.881203 -0.459279 0.112003 
-0.090905 0.131701 0.008092 -0.919696 0.189334 -0.343965 
0.040485 0.057889 -0.005170 0.531518 -0.067088 -0.844386 
0.029596 0.058047 -0.017827 0.731849 -0.241824 -0.637117 
0.026699 0.094136 -0.020595 0.486304 0.309460 -0.817155 
-0.067710 0.172869 -0.057260 -0.616120 -0.248536 -0.747412 
0.014200 0.118043 -0.013917 0.318211 0.637211 -0.701928 
-0.069817 0.069969 0.032637 -0.465044 -0.663179 0.586453 
0.060710 0.064880 0.015163 0.983521 0.167328 0.068474 
0.060935 0.063051 0.013159 0.983521 0.167328 0.068474 
0.060220 0.064372 0.008641 0.955135 0.183121 -0.232774 
0.057406 0.063888 0.002716 0.727685 0.313517 -0.610066 
-0.079779 0.103858 -0.006600 -0.698292 0.256919 -0.668117 
-0.056387 0.137359 -0.004220 0.529480 0.131205 -0.838114 
0.034451 0.063826 -0.015201 0.749606 -0.139530 -0.647010 
0.030714 0.060532 -0.018459 0.727091 -0.234436 -0.645274 
0.018568 0.121789 -0.007256 0.407073 0.714393 -0.569153 
-0.045662 0.112414 -0.016966 -0.038099 0.462798 -0.885645 
0.045618 0.064484 -0.001622 0.610345 0.200425 -0.766361 
-0.058427 0.034901 0.044120 -0.386264 -0.597433 0.702762 
-0.074798 0.072367 0.030851 -0.602971 -0.646071 0.467993 
-0.069937 0.062185 0.015178 -0.509803 -0.853513 0.107782 
-0.052889 0.136519 -0.001708 0.635500 0.104711 -0.764968 
0.041021 0.064489 -0.004767 0.724748 -0.017507 -0.688791 
0.038871 0.064617 -0.009768 0.786256 -0.139006 -0.602062 
0.051487 0.063728 -0.001748 0.527625 0.367770 -0.765739 
-0.078730 0.074455 0.026742 -0.735661 -0.594451 0.324701 
-0.085028 0.144269 0.006181 -0.794017 0.292992 -0.532628 
0.031309 0.064487 -0.018894 0.701898 -0.145800 -0.697195 
0.026727 0.064617 -0.022084 0.631626 -0.101341 -0.768621 
0.031874 0.087744 -0.019271 0.601437 0.212324 -0.770190 
-0.077246 0.143995 -0.004709 -0.728504 -0.029550 -0.684404 
0.013258 0.110443 -0.018354 0.281672 0.409188 -0.867886 
-0.002893 0.124723 -0.008630 -0.083596 0.835020 -0.543831 
-0.034287 0.038582 0.048546 -0.516032 -0.115901 0.848692 
0.020040 0.087623 -0.026121 0.453908 0.255148 -0.853737 
0.058545 0.070535 0.014698 0.789302 0.613844 0.014063 
0.058141 0.069982 0.008562 0.734459 0.609800 -0.297849 
0.056099 0.069436 0.004244 0.521149 0.668745 -0.530268 
0.037048 0.066519 -0.013264 0.756556 -0.140123 -0.638739 
-0.062561 0.172971 -0.061672 -0.333737 -0.528764 -0.780402 
-0.070272 0.154940 -0.045547 -0.689484 -0.523819 -0.500226 
-0.091626 0.130499 0.009305 -0.937275 0.168230 -0.305309 
-0.070021 0.148229 -0.032823 -0.344956 -0.868800 -0.355235 
-0.072127 0.068018 0.026775 -0.590758 -0.736035 0.330541 
-0.074534 0.150670 -0.026430 -0.790608 -0.583202 -0.186588 
0.043109 0.071346 -0.002764 0.838800 0.031662 -0.543518 
0.042166 0.069252 -0.004661 0.811121 0.022415 -0.584449 
0.034540 0.069938 -0.016039 0.749847 -0.087720 -0.655770 
-0.034237 0.122912 -0.007086 0.152325 0.814134 -0.560342 
0.040152 0.070932 -0.009511 0.819207 -0.085476 -0.567092 
0.037071 0.070741 -0.013301 0.779708 -0.100716 -0.617990 
0.031086 0.070217 -0.019290 0.684305 -0.085883 -0.724121 
0.028300 0.070545 -0.022245 0.635740 -0.050924 -0.770222 
-0.008590 0.101699 -0.023790 -0.006164 0.599020 -0.800711 
-0.032823 0.040014 -0.029875 -0.227548 -0.022165 -0.973515 
-0.083059 0.110470 0.039733 -0.460107 -0.813997 0.354558 
0.014272 0.123237 -0.008065 0.314781 0.758442 -0.570682 
-0.076044 0.108637 0.038908 -0.328244 -0.697004 0.637528 
-0.073276 0.154939 -0.032139 -0.881984 -0.376089 -0.284009 
0.016032 0.088923 -0.028248 0.430181 0.315663 -0.845755 
-0.090168 0.131361 0.039437 -0.922553 0.227164 0.311918 
0.045583 0.076836 0.002702 0.880654 0.254260 -0.399751 
-0.051672 0.055397 0.014906 -0.928622 -0.171942 0.328780 
-0.037655 0.121002 -0.010972 0.135887 0.730935 -0.668782 
0.046632 0.076288 0.009106 0.812412 0.565659 -0.141483 
0.043730 0.076924 -0.002956 0.903106 0.012477 -0.429237 
0.040504 0.076678 -0.008491 0.858675 -0.064282 -0.508473 
0.036946 0.076284 -0.012884 0.784392 -0.027930 -0.619636 
0.034935 0.076665 -0.015594 0.739828 -0.023356 -0.672391 
0.031924 0.076390 -0.019419 0.690355 -0.013088 -0.723353 
0.028521 0.075807 -0.022523 0.605535 -0.004830 -0.795804 
-0.064686 0.068809 0.034822 -0.317313 -0.694086 0.646187 
-0.003356 0.098614 -0.026928 0.113209 0.653668 -0.748266 
-0.038361 0.100112 -0.021766 -0.138283 0.254831 -0.957047 
-0.070543 0.149897 -0.038732 -0.535335 -0.719018 -0.443204 
-0.024787 0.179215 -0.018836 -0.652459 0.270370 -0.707953 
0.003391 0.093702 -0.031836 0.249373 0.571210 -0.782005 
-0.090990 0.142689 0.022665 -0.970452 0.182043 0.158374 
-0.085109 0.102115 0.000391 -0.892967 0.141924 -0.427162 
0.002992 0.124707 -0.008648 0.038737 0.805524 -0.591296 
-0.064946 0.167336 -0.032994 0.707482 0.659327 0.254475 
0.045975 0.082724 0.014672 0.993670 0.070892 0.087145 
0.046193 0.082738 0.008679 0.967341 0.230345 -0.105793 
0.045346 0.082660 0.002698 0.968801 0.096396 -0.228326 
0.032594 0.082231 -0.019060 0.657285 0.062486 -0.751047 
-0.070775 0.142011 -0.009011 -0.203473 -0.470044 -0.858870 
-0.039669 0.045239 -0.021035 -0.570136 0.643848 -0.510300 
-0.073649 0.145787 -0.013105 -0.605710 -0.702786 -0.373104 
-0.066185 0.177900 -0.052902 0.694006 0.571462 0.437935 
-0.069801 0.179227 -0.051728 0.320125 0.865868 0.384438 
-0.071968 0.177848 -0.047460 0.456716 0.742396 0.490163 
-0.013182 0.097425 0.050981 -0.220445 0.677932 0.701293 
-0.076053 0.177651 -0.047146 -0.438643 0.855721 0.274469 
-0.087527 0.149451 0.009375 -0.792839 0.421326 -0.440331 
-0.084750 0.149536 0.006524 -0.750422 0.401535 -0.525010 
-0.085384 0.098041 -0.000554 -0.873414 0.156604 -0.461112 
-0.070162 0.172945 -0.039313 0.400309 0.827378 0.393952 
-0.066905 0.171360 -0.040419 0.616942 0.711742 0.335865 
-0.091577 0.114644 0.010835 -0.885932 -0.403116 -0.229394 
0.031118 0.116345 -0.001421 0.682630 0.648171 -0.337475 
-0.090390 0.144074 0.014256 -0.964143 0.143683 -0.223122 
0.053375 0.072417 0.008058 0.519844 0.791422 -0.321581 
0.034812 0.113636 0.002900 0.766490 0.611680 -0.195808 
0.032105 0.117128 0.003737 0.721250 0.663854 -0.197730 
-0.055855 0.160130 0.002263 -0.653229 0.730348 -0.199710 
0.028413 0.120050 0.002661 0.630056 0.736748 -0.245420 
-0.069342 0.151526 -0.044326 -0.113980 -0.803647 -0.584089 
0.050914 0.073340 0.011213 0.538150 0.809188 -0.235817 
0.048529 0.072636 0.008567 0.580991 0.749912 -0.316355 
0.025147 0.122517 0.002549 0.571249 0.786871 -0.233473 
-0.068417 0.170157 -0.031953 0.450632 0.833902 0.318652 
-0.071028 0.171274 -0.032589 -0.041118 0.943365 0.329197 
-0.076563 0.155757 -0.008748 -0.875253 0.456942 0.158543 
0.052521 0.073468 0.014888 0.573364 0.819175 -0.014350 
0.035521 0.113454 0.009088 0.796495 0.602074 -0.055703 
0.020832 0.125627 0.003280 0.467242 0.854586 -0.226644 
-0.047672 0.134348 0.019443 0.824841 0.492621 0.277420 
-0.074608 0.171229 -0.032652 -0.029854 0.931648 0.362133 
0.032203 0.117616 0.009364 0.715224 0.695293 -0.070871 
0.016252 0.127588 0.001327 0.345731 0.891962 -0.291332 
-0.091467 0.142805 0.016722 -0.990468 0.122190 -0.063590 
0.029078 0.120474 0.006869 0.661448 0.742278 -0.107287 
0.013591 0.129140 0.003365 0.316217 0.912560 -0.259309 
-0.086163 0.100458 0.025719 -0.877419 0.073274 0.474096 
-0.065305 0.165945 -0.026985 0.673393 0.683634 0.281403 
-0.069849 0.168890 -0.026865 0.117170 0.899416 0.421097 
-0.078270 0.167473 -0.032496 -0.955647 0.293354 0.026118 
0.021556 0.094523 -0.022659 0.416405 0.343393 -0.841836 
0.026061 0.123082 0.008738 0.594692 0.799171 -0.087559 
0.009203 0.130081 0.002482 0.218164 0.930588 -0.293957 
-0.070993 0.170517 -0.029525 0.775831 0.599228 0.197513 
-0.076020 0.167938 -0.027264 -0.590993 0.735335 0.331677 
0.052523 0.071665 0.021120 0.635126 0.631290 0.445071 
0.020717 0.126566 0.009221 0.467888 0.877165 -0.107991 
-0.074602 0.099803 -0.012646 -0.563624 0.190367 -0.803796 
-0.086433 0.089087 0.025705 -0.890277 -0.187562 0.415002 
0.035494 0.113435 0.015085 0.801915 0.594462 0.059554 
0.032074 0.117698 0.014626 0.722162 0.690176 0.046247 
0.002948 0.130714 0.002924 0.029121 0.964764 -0.261502 
-0.025639 0.082396 0.051949 -0.698455 -0.085530 0.710525 
-0.066626 0.165416 -0.022163 0.451960 0.796018 0.402602 
-0.080418 0.153092 0.004887 -0.686189 0.624936 -0.372290 
-0.064562 0.035002 0.015189 -0.810325 -0.394128 0.433632 
-0.062794 0.035248 0.020120 -0.895939 -0.441390 0.049678 
-0.064293 0.034938 0.026460 -0.881153 -0.437281 -0.179873 
-0.064242 0.039750 0.026766 -0.886409 0.392133 -0.245989 
-0.065242 0.035220 0.032436 -0.860089 -0.508615 0.039457 
-0.064320 0.035226 0.038791 -0.763902 -0.508807 0.396949 
-0.086901 0.094409 0.026087 -0.883218 0.006419 0.468919 
-0.026376 0.100403 -0.023752 -0.192962 0.470571 -0.861004 
-0.070439 0.034829 0.008887 -0.836137 -0.391596 0.384094 
-0.069637 0.039673 0.009186 -0.793823 0.495652 0.352383 
-0.067806 0.035728 0.013362 -0.830279 -0.031360 0.556465 
-0.077843 0.081973 0.035462 -0.680488 -0.336973 0.650681 
-0.080932 0.082794 0.032500 -0.764738 -0.336430 0.549537 
-0.071232 0.038974 0.002756 -0.917063 0.378204 -0.126320 
-0.061610 0.037962 0.021934 -0.734695 0.661946 -0.148497 
-0.065378 0.040705 0.032341 -0.961745 0.267140 -0.060685 
-0.061295 0.040108 0.043878 -0.694735 -0.070628 0.715790 
-0.074889 0.082692 0.038115 -0.590841 -0.285024 0.754764 
-0.084164 0.133769 0.048656 -0.470724 0.361826 0.804675 
-0.084911 0.094527 0.029048 -0.837095 0.018735 0.546737 
-0.082994 0.144712 0.040406 -0.461789 0.639847 0.614286 
-0.026548 0.117619 -0.013278 0.007631 0.713985 -0.700120 
-0.067968 0.038322 0.012390 -0.740352 0.409900 0.532786 
-0.063926 0.040115 0.015110 -0.809653 0.396736 0.432507 
-0.058853 0.040780 0.020214 -0.697169 0.714909 0.053484 
-0.086962 0.135589 0.044058 -0.677327 0.398686 0.618286 
-0.038827 0.039848 0.042564 -0.229615 0.336652 0.913205 
-0.025324 0.077344 0.050160 -0.683808 -0.234820 0.690845 
0.008649 0.111878 -0.019225 0.219591 0.383024 -0.897258 
-0.062501 0.044240 0.038862 -0.776034 0.450933 0.440943 
-0.088493 0.125258 0.046167 -0.759760 0.032198 0.649406 
0.015078 0.101070 -0.022037 0.241306 0.467858 -0.850223 
-0.081053 0.087632 0.033462 -0.748657 -0.145543 0.646785 
-0.063660 0.043922 0.032235 -0.843434 0.523289 -0.121605 
-0.082376 0.125850 -0.004596 -0.547440 0.037116 -0.836021 
-0.037455 0.042873 0.042951 -0.332875 0.416325 0.846090 
-0.031328 0.043286 0.050118 -0.519170 0.276670 0.808651 
-0.084180 0.087502 0.028582 -0.854087 -0.181687 0.487365 
-0.069010 0.042722 0.002981 -0.695383 0.710320 -0.109035 
-0.069032 0.042713 0.007391 -0.819112 0.471271 0.327047 
-0.064201 0.044918 0.008952 -0.645589 0.709568 0.282361 
-0.063001 0.042750 0.013300 -0.679911 0.532835 0.503794 
-0.058078 0.044403 0.014360 -0.669991 0.661187 0.337556 
-0.087476 0.130712 0.045854 -0.692052 0.291890 0.660200 
-0.083771 0.099934 0.029339 -0.818786 0.077883 0.568792 
-0.083719 0.082285 0.027093 -0.854360 -0.373325 0.361522 
-0.020918 0.093477 0.051213 -0.407017 0.515560 0.754013 
-0.086898 0.142651 0.038351 -0.709147 0.523900 0.471848 
-0.058898 0.046765 0.009900 -0.712036 0.631067 0.307830 
-0.052914 0.046448 0.015802 -0.836806 0.501079 0.220626 
-0.088165 0.088209 0.020919 -0.939594 -0.230977 0.252612 
-0.049408 0.165901 0.000732 -0.554411 0.796752 0.240447 
-0.058611 0.047398 0.033706 -0.591847 0.802464 0.075954 
-0.056140 0.051748 0.008352 -0.942903 0.008363 0.332963 
-0.086523 0.148073 0.032127 -0.633907 0.659529 0.403961 
-0.030850 0.049330 0.042965 -0.469272 0.537014 0.700999 
-0.076910 0.114994 0.050119 -0.111833 -0.646307 0.754838 
-0.020907 0.095958 0.047419 -0.326517 0.550763 0.768145 
-0.050995 0.050964 0.015080 -0.921800 0.208547 0.326793 
0.008424 0.088966 -0.032054 0.382663 0.333136 -0.861736 
-0.024056 0.054439 0.041697 -0.585741 0.261289 0.767226 
-0.051039 0.052422 0.020321 -0.984782 0.136432 0.107663 
-0.052621 0.051827 0.027021 -0.954711 0.297523 0.002529 
-0.050402 0.059119 0.032689 -0.741227 -0.084614 0.665900 
-0.047882 0.059069 0.036313 -0.582096 -0.097656 0.807235 
-0.023913 0.058655 0.042131 -0.659378 0.086645 0.746802 
-0.075931 0.119228 -0.006970 -0.428769 0.005303 -0.903399 
-0.018318 0.060456 0.050618 -0.607030 -0.188025 0.772115 
-0.029844 0.097253 -0.023572 -0.299495 0.362259 -0.882650 
-0.024193 0.062877 0.042294 -0.713728 -0.177989 0.677431 
-0.022400 0.064670 0.045979 -0.732366 -0.231316 0.640416 
-0.019290 0.064148 0.050393 -0.654293 -0.244337 0.715682 
-0.026011 0.172925 -0.019145 -0.500983 -0.037296 -0.864653 
-0.026533 0.161574 -0.014432 -0.100305 -0.632837 -0.767761 
-0.055856 0.155720 -0.001210 -0.531606 0.444253 -0.721134 
-0.059903 0.136466 -0.006446 0.475225 0.095702 -0.874644 
-0.063538 0.071665 0.037946 -0.322764 -0.619375 0.715680 
-0.020042 0.086986 -0.037888 -0.228106 0.361389 -0.904083 
-0.055718 0.105745 -0.018624 -0.260426 0.309624 -0.914501 
-0.053069 0.143914 -0.001009 0.574915 -0.125950 -0.808461 
-0.025669 0.070464 0.043894 -0.667657 -0.258561 0.698126 
-0.023558 0.069377 0.047020 -0.735866 -0.293886 0.610027 
-0.052576 0.127247 -0.005215 0.246737 0.555798 -0.793857 
-0.078786 0.131858 -0.005459 -0.480860 0.144838 -0.864752 
-0.058021 0.120088 -0.010275 -0.147315 0.484337 -0.862390 
-0.039629 0.110441 -0.018626 -0.012296 0.475294 -0.879741 
-0.021028 0.173113 -0.021492 -0.496576 -0.211910 -0.841729 
-0.054759 0.056329 0.010715 -0.921149 -0.293159 0.256013 
-0.043553 0.034576 -0.024752 -0.736544 -0.290139 -0.611001 
-0.044983 0.034692 -0.020748 -0.756082 -0.428408 -0.494779 
-0.044358 0.039040 -0.021749 -0.786275 0.276490 -0.552563 
-0.046285 0.034504 -0.015311 -0.408723 -0.843197 -0.349235 
-0.046619 0.039646 -0.014146 -0.745268 0.293652 -0.598619 
-0.009049 0.034383 -0.024643 0.084972 -0.929635 -0.358551 
0.003117 0.100303 -0.022793 0.122478 0.588633 -0.799069 
-0.069081 0.039222 -0.001817 -0.794617 0.335440 -0.506027 
-0.092029 0.131041 0.026235 -0.976907 0.178708 0.117115 
-0.043414 0.037249 -0.025306 -0.746035 0.347070 -0.568309 
0.028097 0.081829 -0.022093 0.582713 0.094026 -0.807220 
-0.067702 0.169446 -0.056013 -0.827939 -0.309225 -0.467864 
-0.091538 0.129674 0.031236 -0.967666 0.195733 0.159095 
-0.066309 0.041116 -0.004431 -0.679829 0.553306 -0.481337 
-0.073125 0.151935 -0.036888 -0.948120 -0.187494 -0.256739 
-0.039014 0.039489 -0.027598 -0.582478 0.316867 -0.748542 
-0.063737 0.043783 -0.002645 -0.560796 0.574069 -0.596618 
-0.060543 0.042556 0.024697 -0.695897 0.646291 -0.313106 
-0.085760 0.130763 -0.000714 -0.715397 0.201314 -0.669089 
-0.052047 0.040357 -0.010741 -0.505522 -0.005064 -0.862799 
-0.056852 0.043450 0.022441 -0.690300 0.689027 -0.220743 
-0.043239 0.042934 -0.019317 -0.711917 0.452664 -0.536908 
-0.043879 0.044132 -0.014422 -0.574974 0.522113 -0.629923 
-0.045750 0.046486 -0.010569 -0.485042 0.367994 -0.793294 
-0.064594 0.045690 0.003131 -0.707724 0.691976 -0.142464 
-0.052598 0.046484 0.020712 -0.820259 0.565161 -0.088135 
-0.057258 0.045949 0.026887 -0.699856 0.665654 -0.259048 
-0.061896 0.044365 0.028681 -0.722479 0.608879 -0.327553 
-0.033147 0.045318 -0.026728 -0.465620 0.518311 -0.717323 
-0.037767 0.044355 -0.025210 -0.587969 0.571557 -0.572376 
-0.032092 0.114425 -0.016230 0.007946 0.622289 -0.782747 
-0.057803 0.047067 -0.003267 -0.621216 0.455962 -0.637330 
-0.091495 0.147994 0.020514 -0.958328 0.277237 0.068894 
-0.040007 0.047154 -0.015104 -0.557808 0.597075 -0.576500 
0.004549 0.121869 -0.012480 0.060393 0.732730 -0.677834 
0.015128 0.112708 -0.016550 0.295571 0.452773 -0.841210 
-0.052579 0.046329 -0.007754 -0.532120 0.260421 -0.805624 
-0.059928 0.047511 0.002671 -0.763431 0.636006 -0.112561 
-0.072646 0.147126 -0.021862 -0.682209 -0.690753 -0.239691 
-0.074092 0.168686 -0.044031 -0.830972 -0.385786 -0.400818 
-0.057494 0.051543 0.003194 -0.965242 0.260120 -0.025410 
-0.053692 0.048305 0.026494 -0.761719 0.605720 -0.229972 
-0.014716 0.114453 -0.017226 -0.040965 0.636256 -0.770390 
-0.033519 0.048042 -0.021246 -0.550667 0.646645 -0.527841 
0.019461 0.092433 -0.024434 0.418876 0.338119 -0.842745 
0.016940 0.095206 -0.023828 0.370621 0.401272 -0.837628 
0.020105 0.104156 -0.018820 0.338022 0.421839 -0.841305 
-0.031964 0.051666 -0.015251 -0.656755 0.439180 -0.613020 
-0.036845 0.048826 -0.013107 -0.547247 0.616835 -0.565717 
-0.039127 0.051891 -0.010947 -0.412389 0.215004 -0.885273 
-0.008922 0.111576 -0.020273 -0.028164 0.511845 -0.858616 
-0.051566 0.051516 -0.007514 -0.573800 0.094033 -0.813580 
-0.055703 0.052940 -0.002686 -0.759671 -0.030893 -0.649573 
-0.029342 0.052640 -0.021399 -0.828210 0.157747 -0.537758 
-0.031445 0.049635 -0.019354 -0.694939 0.477513 -0.537626 
0.032238 0.104090 -0.012848 0.626342 0.392810 -0.673347 
-0.026103 0.052580 -0.026467 -0.619865 -0.166448 -0.766852 
-0.058303 0.116733 -0.013004 -0.208633 0.468512 -0.858469 
-0.014851 0.111599 -0.019148 -0.018910 0.539364 -0.841860 
-0.052135 0.118189 -0.013745 -0.123458 0.564957 -0.815832 
-0.051749 0.058280 -0.008970 -0.483981 -0.355937 -0.799419 
-0.056198 0.058246 -0.003106 -0.677579 -0.418376 -0.604854 
-0.058799 0.058612 0.002767 -0.725371 -0.643864 -0.243465 
-0.058556 0.057842 0.008576 -0.764994 -0.625539 0.153252 
0.019026 0.116140 -0.013169 0.396558 0.551856 -0.733619 
-0.021189 0.111662 -0.019088 -0.042616 0.585649 -0.809444 
-0.023918 0.056115 -0.030057 -0.602581 -0.330748 -0.726293 
-0.027260 0.058548 -0.027478 -0.814101 -0.233698 -0.531625 
-0.029577 0.058280 -0.021755 -0.879084 -0.201434 -0.432014 
-0.032093 0.058938 -0.014762 -0.722384 -0.197499 -0.662688 
0.007394 0.121789 -0.012656 0.149753 0.706287 -0.691905 
-0.025195 0.059523 -0.030863 -0.657427 -0.328754 -0.678020 
-0.030717 0.060130 -0.019418 -0.859318 -0.225094 -0.459244 
-0.065011 0.063217 -0.002931 -0.423829 -0.783114 -0.455083 
-0.069648 0.065751 -0.001981 -0.491540 -0.771905 -0.403176 
-0.069993 0.063501 0.003741 -0.508767 -0.813560 -0.281561 
-0.079944 0.072481 0.019151 -0.752829 -0.643543 0.138209 
-0.067684 0.160922 -0.055994 0.994326 -0.014414 0.105391 
-0.021543 0.063656 -0.035043 -0.396368 -0.335070 -0.854764 
-0.025833 0.064825 -0.032209 -0.709942 -0.305211 -0.634688 
-0.028982 0.063644 -0.027500 -0.849019 -0.273424 -0.452112 
-0.030423 0.062937 -0.022426 -0.867421 -0.271537 -0.416952 
-0.031904 0.065182 -0.020194 -0.851536 -0.283142 -0.441267 
-0.033274 0.063634 -0.016003 -0.714086 -0.346507 -0.608288 
-0.020555 0.034111 -0.026401 0.061482 -0.905755 -0.419317 
-0.074337 0.065829 0.008331 -0.649976 -0.754828 -0.088122 
0.016103 0.120745 -0.010384 0.324507 0.704335 -0.631353 
-0.077021 0.070054 0.003166 -0.684998 -0.686026 -0.245247 
-0.074822 0.066930 0.004513 -0.652612 -0.723857 -0.223895 
-0.030632 0.065752 -0.025453 -0.864305 -0.279007 -0.418488 
-0.071143 0.068708 -0.003903 -0.535277 -0.705688 -0.464202 
-0.076262 0.071632 -0.002959 -0.647411 -0.618357 -0.445525 
-0.080220 0.071393 0.009913 -0.751496 -0.654834 -0.080289 
-0.091341 0.148143 0.016146 -0.899383 0.411461 -0.147684 
-0.027374 0.070005 -0.033532 -0.663266 -0.240674 -0.708629 
-0.030027 0.069207 -0.028968 -0.834700 -0.253121 -0.489087 
-0.031628 0.071122 -0.026651 -0.862788 -0.250820 -0.438960 
-0.033063 0.069977 -0.021274 -0.790228 -0.305975 -0.530960 
-0.035364 0.070590 -0.017710 -0.594099 -0.351056 -0.723745 
-0.058700 0.039104 -0.009003 -0.461002 0.302268 -0.834332 
-0.069770 0.070386 -0.008087 -0.488231 -0.662598 -0.567974 
-0.080483 0.072646 0.004725 -0.749403 -0.627825 -0.210309 
0.015162 0.126104 -0.002664 0.329627 0.860808 -0.387757 
-0.074572 0.072883 -0.007571 -0.609786 -0.577114 -0.543232 
-0.082391 0.076277 0.002701 -0.813465 -0.512125 -0.275685 
-0.091283 0.133698 0.014216 -0.930394 0.152216 -0.333463 
0.003710 0.096882 -0.028093 0.175418 0.678353 -0.713488 
-0.076139 0.076626 -0.008595 -0.672216 -0.483232 -0.560903 
-0.078475 0.074883 -0.005236 -0.726352 -0.468921 -0.502519 
-0.080678 0.077190 -0.002908 -0.762640 -0.454518 -0.460210 
-0.083462 0.076521 0.009271 -0.829807 -0.552345 -0.079599 
0.009838 0.114020 -0.017861 0.210463 0.449512 -0.868127 
0.002106 0.098156 -0.026124 0.173586 0.673295 -0.718708 
-0.028508 0.075758 -0.034812 -0.619068 -0.104693 -0.778327 
-0.033087 0.076125 -0.027066 -0.846462 -0.156555 -0.508914 
-0.034657 0.075791 -0.021503 -0.605563 -0.316196 -0.730283 
0.023110 0.089281 -0.024024 0.447651 0.273235 -0.851440 
-0.031213 0.077136 -0.032042 -0.812002 -0.104493 -0.574224 
-0.070042 0.076363 -0.014146 -0.482551 -0.445993 -0.753813 
-0.086114 0.081471 0.009081 -0.916383 -0.383471 -0.114857 
-0.086319 0.081520 0.014994 -0.909678 -0.406826 0.083540 
-0.020804 0.096318 -0.027056 -0.204140 0.641998 -0.739031 
-0.021108 0.114391 -0.017128 -0.032061 0.615328 -0.787619 
-0.074616 0.082853 -0.013933 -0.628520 -0.213851 -0.747817 
-0.077295 0.081216 -0.010057 -0.732625 -0.253639 -0.631607 
-0.080013 0.082161 -0.007222 -0.762326 -0.286900 -0.580128 
-0.082633 0.082087 -0.003246 -0.838651 -0.330316 -0.433076 
-0.084467 0.081767 0.002496 -0.886015 -0.349882 -0.304238 
-0.086044 0.083259 0.020326 -0.896212 -0.367478 0.248526 
-0.084816 0.081675 0.021985 -0.874467 -0.395190 0.281303 
0.054555 0.066169 0.000766 0.592365 0.408258 -0.694571 
-0.033160 0.082837 -0.027049 -0.713325 -0.007980 -0.700788 
-0.035803 0.082905 -0.022772 -0.580482 -0.158692 -0.798660 
-0.086194 0.084251 0.002986 -0.915709 -0.267226 -0.300113 
-0.028707 0.082727 -0.034954 -0.598246 0.150220 -0.787106 
-0.031160 0.082239 -0.031563 -0.772482 0.130237 -0.621538 
-0.085403 0.141865 0.005166 -0.794017 0.292992 -0.532628 
-0.078517 0.088563 -0.010761 -0.724188 -0.090779 -0.683601 
-0.080705 0.088768 -0.008266 -0.775057 -0.103561 -0.623347 
-0.084397 0.087874 -0.003499 -0.867820 -0.133349 -0.478651 
-0.085571 0.088207 -0.001099 -0.898974 -0.151238 -0.411062 
-0.087616 0.088129 0.003692 -0.940802 -0.178350 -0.288240 
-0.088534 0.087694 0.008972 -0.962150 -0.228967 -0.147789 
-0.088579 0.087721 0.014962 -0.963965 -0.259170 0.060013 
-0.064385 0.034858 -0.007751 -0.594417 -0.147952 -0.790429 
-0.051293 0.034227 -0.012901 -0.460571 -0.588894 -0.664137 
-0.026684 0.045856 -0.027274 -0.345167 0.154964 -0.925660 
-0.014637 0.098154 -0.026432 -0.072029 0.641171 -0.764010 
-0.021347 0.100770 -0.023959 -0.101416 0.559524 -0.822586 
0.020932 0.082595 -0.026735 0.489005 0.136784 -0.861490 
0.007592 0.092854 -0.030924 0.295666 0.542590 -0.786243 
-0.014448 0.087927 -0.038030 -0.012378 0.383752 -0.923353 
-0.008597 0.114510 -0.017313 -0.069469 0.624043 -0.778296 
0.026482 0.109935 -0.012618 0.511840 0.508553 -0.692382 
-0.014585 0.038518 -0.026799 0.122412 -0.479857 -0.868765 
-0.033005 0.033704 -0.027299 0.113952 -0.928458 -0.353527 
-0.026787 0.034047 -0.027190 0.082098 -0.842378 -0.532596 
-0.008492 0.098586 -0.027053 0.002240 0.663441 -0.748225 
-0.011095 0.120824 -0.012013 -0.103008 0.719008 -0.687326 
0.036738 0.092599 -0.012989 0.700774 0.264635 -0.662483 
-0.057163 0.043575 -0.007176 -0.488618 0.333050 -0.806431 
-0.019333 0.097925 -0.024792 -0.155380 0.609851 -0.777135 
-0.020380 0.038547 -0.028309 0.056035 -0.224085 -0.972957 
-0.058768 0.033713 -0.008719 -0.375475 -0.590287 -0.714549 
-0.051792 0.100655 -0.021326 -0.155623 0.198479 -0.967671 
0.007026 0.097842 -0.024605 0.209441 0.626917 -0.750407 
-0.014889 0.126068 -0.002521 -0.198875 0.898597 -0.391118 
0.030758 0.092446 -0.018852 0.569443 0.288481 -0.769749 
0.021105 0.057813 -0.026612 0.506429 -0.215763 -0.834851 
-0.016924 0.097048 -0.027872 -0.141005 0.690161 -0.709785 
0.046000 0.058187 -0.005086 0.447891 0.021059 -0.893840 
-0.009443 0.082227 -0.038107 0.148417 0.125335 -0.980950 
-0.063588 0.039212 -0.007178 -0.446684 0.546291 -0.708548 
0.008642 0.038637 -0.023305 0.222918 -0.588654 -0.777042 
0.025293 0.076956 -0.024841 0.573286 0.013988 -0.819236 
-0.022965 0.089516 -0.036199 -0.378438 0.407809 -0.830949 
-0.052379 0.034119 -0.009947 -0.369620 -0.676386 -0.637090 
0.021169 0.064393 -0.026858 0.518851 -0.101345 -0.848836 
-0.051587 0.131640 -0.002809 0.492881 0.426168 -0.758584 
-0.014967 0.034553 -0.025427 0.081532 -0.901315 -0.425421 
-0.016117 0.127288 0.001693 -0.218605 0.941398 -0.256870 
-0.046923 0.128515 -0.001640 0.357402 0.780013 -0.513657 
-0.009614 0.127158 -0.003788 -0.178307 0.904398 -0.387648 
-0.007457 0.128562 -0.001308 -0.167925 0.920542 -0.352708 
-0.003045 0.128909 -0.001749 -0.077715 0.919924 -0.384319 
0.002838 0.129022 -0.001947 0.040927 0.913988 -0.403673 
0.009034 0.128674 -0.001650 0.182655 0.902500 -0.390040 
-0.056161 0.131588 -0.005714 0.382845 0.227625 -0.895330 
-0.045755 0.127167 -0.004850 0.313169 0.741462 -0.593430 
-0.003047 0.127678 -0.004560 -0.073774 0.882654 -0.464198 
0.003038 0.127680 -0.004420 0.046887 0.875488 -0.480959 
0.010153 0.126812 -0.004665 0.177990 0.868672 -0.462307 
-0.055326 0.126836 -0.006013 -0.571571 0.251702 0.780995 
0.007995 0.034846 -0.020691 0.068764 -0.871611 -0.485352 
0.002718 0.034219 -0.020474 0.036254 -0.966039 -0.255842 
-0.002958 0.034242 -0.021622 0.055393 -0.955283 -0.290459 
0.013467 0.035322 -0.019696 0.347771 -0.848003 -0.399933 
0.004410 0.038306 -0.024078 0.142048 -0.707098 -0.692701 
0.001408 0.038347 -0.024615 0.152695 -0.601923 -0.783819 
-0.003092 0.038388 -0.025187 0.132953 -0.616691 -0.775897 
-0.057502 0.100661 -0.019521 -0.277173 0.210499 -0.937478 
-0.048574 0.153160 -0.005473 -0.328465 -0.275278 -0.903512 
-0.064657 0.033483 -0.002960 -0.280312 -0.949405 -0.141619 
-0.064080 0.100426 -0.017394 -0.357266 0.202461 -0.911795 
-0.070441 0.100139 -0.014604 -0.467129 0.183950 -0.864842 
-0.032638 0.155806 -0.009499 0.059078 -0.736268 -0.674106 
0.033609 0.037362 0.002734 0.287981 -0.879464 -0.378959 
0.032094 0.039788 -0.001951 0.254076 -0.791948 -0.555215 
0.015850 0.044960 -0.023721 0.423259 -0.419991 -0.802782 
0.008895 0.042645 -0.024266 0.235466 -0.482932 -0.843405 
0.003125 0.045272 -0.026588 0.161338 -0.421536 -0.892344 
-0.002983 0.044686 -0.027222 0.113132 -0.411989 -0.904138 
-0.009123 0.044852 -0.028067 0.038699 -0.403256 -0.914269 
-0.014535 0.044327 -0.027777 -0.022039 -0.335470 -0.941793 
-0.020922 0.046091 -0.028192 -0.207495 -0.227392 -0.951440 
0.034052 0.044843 -0.005401 0.392966 -0.581544 -0.712309 
-0.031265 0.158257 -0.012230 -0.034324 -0.646602 -0.762055 
0.040151 0.044898 -0.003546 0.356749 -0.603933 -0.712738 
0.014325 0.047348 -0.025151 0.372594 -0.408050 -0.833468 
0.009379 0.046653 -0.026168 0.238421 -0.371439 -0.897323 
-0.076653 0.069542 0.020798 -0.681859 -0.705876 0.191851 
0.008725 0.051792 -0.029161 0.238402 -0.288837 -0.927221 
0.002994 0.050693 -0.029856 0.166317 -0.358360 -0.918649 
-0.001646 0.048944 -0.030414 0.131762 -0.368536 -0.920228 
-0.003214 0.052260 -0.031408 0.128788 -0.352678 -0.926840 
-0.009153 0.050922 -0.031868 0.038793 -0.392681 -0.918856 
-0.014602 0.051375 -0.031904 -0.151686 -0.357087 -0.921673 
-0.016156 0.048854 -0.030376 -0.159149 -0.371839 -0.914553 
-0.020584 0.050801 -0.029644 -0.329084 -0.275615 -0.903183 
0.040525 0.051886 -0.006545 0.411250 -0.309494 -0.857372 
0.014931 0.052077 -0.027386 0.347188 -0.316698 -0.882702 
0.041884 0.049087 -0.006044 0.335330 -0.328929 -0.882814 
0.019962 0.052991 -0.026122 0.485225 -0.317200 -0.814826 
-0.019850 0.053423 -0.031227 -0.380025 -0.342176 -0.859358 
-0.033627 0.052719 -0.010624 -0.545540 0.239406 -0.803163 
-0.046111 0.052916 -0.010166 -0.350732 0.048045 -0.935242 
-0.020400 0.161875 -0.014658 -0.227179 -0.640198 -0.733850 
0.044992 0.053090 -0.006149 0.414481 -0.235571 -0.879040 
0.007337 0.054653 -0.030504 0.233302 -0.269607 -0.934282 
0.002836 0.054653 -0.030747 0.188507 -0.283118 -0.940377 
-0.003022 0.057700 -0.033148 0.157165 -0.285913 -0.945279 
-0.009147 0.057668 -0.034116 0.038713 -0.320307 -0.946523 
-0.015170 0.058199 -0.034988 -0.114749 -0.357554 -0.926816 
-0.020271 0.058103 -0.033368 -0.471267 -0.369156 -0.801019 
0.014084 0.057965 -0.028983 0.315246 -0.215875 -0.924131 
0.010330 0.058855 -0.029947 0.256838 -0.218682 -0.941389 
0.007328 0.058890 -0.030612 0.238187 -0.224570 -0.944900 
0.002737 0.059015 -0.032193 0.224630 -0.216534 -0.950081 
-0.033719 0.057974 -0.011582 -0.548956 -0.170734 -0.818228 
-0.039071 0.058247 -0.011503 -0.297799 -0.223809 -0.928022 
-0.046047 0.057912 -0.011517 -0.273140 -0.243286 -0.930702 
-0.009614 0.064217 -0.035856 0.112228 -0.227455 -0.967300 
-0.044157 0.059983 -0.012388 -0.232271 -0.285171 -0.929907 
0.015251 0.064580 -0.029567 0.373802 -0.108393 -0.921153 
0.008393 0.064921 -0.031696 0.277915 -0.147259 -0.949251 
0.003259 0.064353 -0.033244 0.238960 -0.168913 -0.956225 
-0.003613 0.064586 -0.034907 0.212395 -0.195739 -0.957379 
-0.014471 0.065006 -0.037160 0.008667 -0.256444 -0.966520 
-0.036662 0.060679 -0.012279 -0.442532 -0.255927 -0.859457 
-0.052640 0.063640 -0.010130 -0.341251 -0.518132 -0.784274 
-0.038187 0.064892 -0.014207 -0.345799 -0.366221 -0.863889 
-0.045249 0.064786 -0.013982 -0.166825 -0.388776 -0.906103 
-0.059926 0.062297 -0.004293 -0.450136 -0.740667 -0.498788 
-0.077864 0.117463 -0.005768 -0.514416 -0.007626 -0.857507 
-0.018745 0.066415 -0.037478 -0.290817 -0.306532 -0.906346 
-0.057762 0.064488 -0.007791 -0.414201 -0.649863 -0.637271 
-0.062578 0.065535 -0.007411 -0.361306 -0.726209 -0.584875 
0.025109 0.071094 -0.024860 0.566262 -0.040806 -0.823214 
0.021457 0.070273 -0.027341 0.485519 -0.040056 -0.873308 
0.016675 0.070159 -0.029720 0.436095 -0.039558 -0.899031 
0.013275 0.070264 -0.031207 0.387065 -0.042012 -0.921095 
0.008675 0.070351 -0.032428 0.325689 -0.088598 -0.941317 
0.002296 0.070869 -0.034312 0.257832 -0.123282 -0.958292 
-0.003065 0.070381 -0.035356 0.232428 -0.147744 -0.961327 
-0.007737 0.069175 -0.036205 0.189557 -0.160924 -0.968593 
-0.010199 0.071512 -0.037378 0.178613 -0.151518 -0.972183 
-0.014745 0.070443 -0.038294 0.053809 -0.176244 -0.982875 
-0.020398 0.070652 -0.038158 -0.227368 -0.219375 -0.948777 
-0.024097 0.069342 -0.036252 -0.471533 -0.253732 -0.844557 
-0.060518 0.067360 -0.010826 -0.314912 -0.690385 -0.651306 
-0.038729 0.070635 -0.016846 -0.350015 -0.370016 -0.860568 
-0.045135 0.070506 -0.016450 -0.153609 -0.407601 -0.900148 
-0.052343 0.069786 -0.014598 -0.146246 -0.511846 -0.846538 
-0.059152 0.070289 -0.014720 -0.222682 -0.592493 -0.774187 
-0.065251 0.068849 -0.009940 -0.370806 -0.705316 -0.604180 
-0.024761 0.071978 -0.036832 -0.471533 -0.253732 -0.844557 
-0.063788 0.071270 -0.013853 -0.311048 -0.613199 -0.726110 
0.021145 0.076927 -0.026877 0.503833 0.030031 -0.863279 
0.016213 0.076527 -0.029378 0.434537 0.026377 -0.900268 
0.013325 0.076020 -0.030671 0.400868 0.012272 -0.916054 
0.009077 0.076038 -0.033038 0.348894 -0.010037 -0.937108 
0.002451 0.076086 -0.035161 0.278010 -0.068668 -0.958121 
-0.001763 0.076229 -0.036069 0.256202 -0.081557 -0.963176 
-0.004765 0.076286 -0.036974 0.238322 -0.086617 -0.967316 
-0.009630 0.076594 -0.037865 0.181515 -0.074251 -0.980581 
-0.014448 0.076412 -0.038578 0.053235 -0.066133 -0.996390 
-0.021453 0.076357 -0.038668 -0.305738 -0.118698 -0.944688 
-0.024977 0.076248 -0.037452 -0.475327 -0.114465 -0.872331 
-0.037745 0.076616 -0.018912 -0.403268 -0.338678 -0.850101 
-0.039740 0.074662 -0.018026 -0.354641 -0.360780 -0.862593 
-0.043742 0.076591 -0.018792 -0.108130 -0.377813 -0.919546 
-0.046638 0.074484 -0.017367 -0.093657 -0.396114 -0.913412 
-0.051862 0.074581 -0.017508 -0.083365 -0.441198 -0.893529 
-0.058987 0.074537 -0.017660 -0.173268 -0.461412 -0.870102 
-0.064408 0.075628 -0.016753 -0.290387 -0.388173 -0.874641 
-0.072130 0.074026 -0.010572 -0.574515 -0.562424 -0.594653 
-0.061523 0.035413 0.043881 -0.474922 -0.547561 0.688931 
-0.052497 0.076987 -0.018954 -0.071419 -0.392783 -0.916854 
-0.058748 0.076744 -0.018746 -0.192445 -0.423181 -0.885372 
0.013102 0.080995 -0.030792 0.426929 0.118613 -0.896472 
0.008923 0.082065 -0.032548 0.377172 0.094042 -0.921356 
0.002292 0.082030 -0.034928 0.299738 0.073626 -0.951176 
-0.001778 0.080481 -0.036447 0.266394 0.057899 -0.962124 
-0.003797 0.082419 -0.037328 0.240713 0.064644 -0.968441 
-0.014299 0.082038 -0.039021 0.029312 0.151442 -0.988031 
-0.020771 0.082386 -0.038734 -0.198463 0.169665 -0.965311 
-0.024809 0.081897 -0.037703 -0.443664 0.178525 -0.878232 
-0.073582 0.077703 -0.012202 0.598523 0.451300 0.661890 
0.015425 0.083129 -0.029521 0.448019 0.123512 -0.885451 
-0.038399 0.081792 -0.020960 -0.414070 -0.249040 -0.875514 
-0.045118 0.081553 -0.020434 -0.098583 -0.304128 -0.947517 
-0.051814 0.081847 -0.021135 -0.083457 -0.277519 -0.957088 
-0.058369 0.081272 -0.020297 -0.173329 -0.271581 -0.946679 
-0.063949 0.082768 -0.018894 -0.299468 -0.135578 -0.944425 
-0.066271 0.080065 -0.017783 -0.310606 -0.243743 -0.918756 
-0.069559 0.083059 -0.017058 -0.435240 -0.118497 -0.892482 
-0.004818 0.086841 -0.036795 0.232019 0.230826 -0.944927 
-0.024821 0.086752 -0.036764 -0.477605 0.384786 -0.789831 
0.013205 0.087160 -0.030547 0.424699 0.283805 -0.859701 
-0.036084 0.086708 -0.023791 -0.437039 -0.010563 -0.899381 
-0.008778 0.034056 -0.020493 0.018578 -0.999613 0.020703 
-0.020713 0.034238 -0.020873 -0.024898 -0.959135 0.281851 
-0.014791 0.034110 -0.020762 -0.003673 -0.993766 0.111427 
-0.026577 0.034296 -0.021099 0.038802 -0.975149 0.218125 
0.002827 0.035105 -0.015814 -0.106438 -0.977950 0.179681 
0.008860 0.034471 -0.014749 -0.105874 -0.994171 0.020384 
-0.039085 0.033723 -0.020262 0.185825 -0.970799 0.151717 
-0.032666 0.034533 -0.020187 0.137552 -0.944221 0.299210 
-0.002245 0.035154 -0.016623 -0.055039 -0.927344 0.370140 
-0.014910 0.035731 -0.018096 -0.044857 -0.941133 0.335048 
-0.011481 0.035366 -0.017704 -0.026699 -0.930306 0.365810 
-0.009216 0.038018 -0.014973 -0.030374 -0.939402 0.341471 
-0.002825 0.038229 -0.014064 -0.046843 -0.973736 0.222807 
0.002859 0.037732 -0.013472 -0.174877 -0.951155 0.254404 
0.015911 0.034710 -0.008822 0.398120 -0.891699 -0.215346 
-0.030684 0.036693 -0.018460 0.093517 -0.906641 0.411409 
-0.026522 0.036747 -0.018818 0.028799 -0.936448 0.349623 
-0.021834 0.036972 -0.018430 -0.035882 -0.935633 0.351145 
-0.020303 0.038277 -0.015258 -0.039749 -0.937455 0.345830 
-0.015260 0.038233 -0.015643 -0.047898 -0.932996 0.356686 
0.007384 0.036617 -0.012500 -0.147281 -0.984205 0.098232 
0.009924 0.035198 -0.009246 -0.165378 -0.983136 0.078058 
0.007026 0.037839 -0.008790 -0.318991 -0.944217 0.081853 
-0.039696 0.034284 -0.014578 0.112942 -0.993598 -0.002799 
-0.032952 0.038215 -0.014678 0.211958 -0.941763 0.261067 
-0.026386 0.038578 -0.015364 0.030281 -0.938035 0.345216 
0.003208 0.038942 -0.009539 -0.243564 -0.949477 0.197916 
-0.036439 0.035795 -0.015584 -0.273424 0.960716 -0.047584 
-0.003015 0.039106 -0.008865 -0.089705 -0.978113 0.187744 
0.008317 0.034816 -0.003220 -0.300620 -0.942151 -0.148251 
0.014504 0.034369 -0.002843 0.138595 -0.981739 -0.130308 
-0.036575 0.037028 -0.013653 0.257559 -0.949944 0.176834 
-0.014623 0.038805 -0.008875 -0.005652 -0.984063 0.177730 
-0.008867 0.038939 -0.008902 -0.007665 -0.980965 0.194034 
-0.045103 0.033672 -0.008487 0.150609 -0.984447 -0.090449 
-0.040313 0.035080 -0.008618 0.184754 -0.982007 -0.039088 
-0.020623 0.038600 -0.008781 -0.016088 -0.988805 0.148347 
0.002679 0.038424 -0.003197 -0.295450 -0.943611 -0.149357 
0.015044 0.035052 0.002890 0.023628 -0.986210 -0.163805 
0.020148 0.034781 0.003483 0.164922 -0.955831 -0.243287 
0.027119 0.035351 0.003668 0.173065 -0.936707 -0.304349 
0.028079 0.036553 0.000827 0.227567 -0.904157 -0.361543 
-0.037607 0.037569 -0.009424 0.263150 -0.963959 0.039189 
-0.033275 0.038455 -0.008557 0.192920 -0.979520 0.057630 
-0.026454 0.038450 -0.008862 0.039640 -0.989313 0.140318 
-0.002993 0.038958 -0.002924 -0.179648 -0.977283 -0.112449 
0.004514 0.035608 -0.001036 -0.300198 -0.936374 -0.181893 
0.008811 0.035043 0.003568 -0.247572 -0.953327 -0.172847 
0.031418 0.036026 0.004579 0.245074 -0.913481 -0.324795 
-0.008882 0.038788 -0.002994 -0.068642 -0.995936 -0.058308 
0.002718 0.034909 0.003398 -0.336107 -0.918686 -0.207482 
-0.041199 0.034147 -0.003276 0.134876 -0.990728 -0.016332 
-0.020548 0.038426 -0.002838 0.019877 -0.999728 -0.012238 
-0.014662 0.038591 -0.002887 0.016544 -0.999801 -0.011176 
0.001035 0.037592 0.000952 -0.276876 -0.940870 -0.195201 
0.021575 0.035491 0.008619 0.081428 -0.990012 -0.115086 
0.026479 0.034651 0.008707 0.108886 -0.989074 -0.099377 
0.032239 0.035541 0.008824 0.215678 -0.968682 -0.123039 
