-0.0094539 -0.059251 0.427 0.49471 0.42165 -0.75991
-0.0094539 -0.058461 0.427 0.48714 0.42842 -0.76102
-0.0094317 -0.057536 0.426 0.46542 0.42166 -0.7782
-0.0094317 -0.056747 0.426 0.45544 0.42631 -0.78156
-0.0094096 -0.055828 0.425 0.44375 0.40897 -0.79739
-0.0094096 -0.055042 0.425 0.43374 0.40203 -0.80638
-0.0093875 -0.054128 0.424 0.40006 0.3858 -0.83133
-0.0093875 -0.053343 0.424 0.38139 0.38652 -0.83973
-0.0093653 -0.052435 0.423 0.33912 0.37276 -0.86374
-0.0093653 -0.051652 0.423 0.31004 0.37648 -0.87301
-0.0093653 -0.05087 0.423 0.27115 0.38322 -0.88296
-0.0093653 -0.050087 0.423 0.2273 0.37651 -0.89809
-0.0093653 -0.049304 0.423 0.1785 0.3714 -0.91115
-0.0093653 -0.048522 0.423 0.13454 0.36652 -0.92063
-0.0093432 -0.047626 0.422 0.10131 0.36195 -0.92667
-0.0093432 -0.046846 0.422 0.082737 0.36343 -0.92794
-0.0093432 -0.046065 0.422 0.055224 0.36583 -0.92904
-0.0093432 -0.045284 0.422 0.031646 0.36193 -0.93167
-0.0093432 -0.044503 0.422 0.019777 0.3629 -0.93162
-0.0093432 -0.043722 0.422 -0.0049453 0.36296 -0.93179
-0.0093432 -0.042942 0.422 -0.022791 0.35772 -0.93355
-0.0093432 -0.042161 0.422 -0.042716 0.3497 -0.93589
-0.0093432 -0.04138 0.422 -0.058704 0.34331 -0.93738
-0.0093432 -0.040599 0.422 -0.069765 0.33693 -0.93894
-0.0093432 -0.039819 0.422 -0.090603 0.3346 -0.93799
-0.0093653 -0.03913 0.423 -0.10327 0.33173 -0.93771
-0.0093653 -0.038348 0.423 -0.12215 0.32484 -0.93785
-0.0093653 -0.037565 0.423 -0.14871 0.31835 -0.93623
-0.0093653 -0.036783 0.423 -0.17004 0.31548 -0.93357
-0.0093653 -0.036 0.423 -0.18943 0.30992 -0.9317
-0.0093653 -0.035217 0.423 -0.22923 0.30283 -0.92507
-0.0093653 -0.034435 0.423 -0.27919 0.29962 -0.91229
-0.0093875 -0.033732 0.424 -0.32428 0.2988 -0.89753
-0.0093875 -0.032947 0.424 -0.35902 0.29649 -0.88499
-0.0093875 -0.032163 0.424 -0.36531 0.29738 -0.88211
-0.0094096 -0.031452 0.425 -0.34969 0.30117 -0.88714
-0.0094096 -0.030666 0.425 -0.29226 0.31423 -0.90324
-0.0094317 -0.02995 0.426 -0.20701 0.33281 -0.91999
-0.0094317 -0.029162 0.426 -0.0912 0.34912 -0.93263
-0.0094317 -0.028374 0.426 0.042277 0.35199 -0.93505
-0.0094317 -0.027586 0.426 0.1805 0.35325 -0.91795
-0.0094096 -0.026735 0.425 0.28471 0.35232 -0.89152
-0.0094096 -0.025948 0.425 0.35913 0.34538 -0.86703
-0.0093875 -0.025103 0.424 0.39958 0.33371 -0.8538
-0.0093875 -0.024318 0.424 0.41048 0.32962 -0.85021
-0.0093875 -0.023534 0.424 0.40697 0.32863 -0.85228
-0.0093653 -0.022696 0.423 0.38877 0.32581 -0.8618
-0.0093653 -0.021913 0.423 0.35447 0.32009 -0.87858
-0.0093653 -0.02113 0.423 0.31972 0.30843 -0.89591
-0.0093432 -0.0203 0.422 0.28331 0.29988 -0.91094
-0.0093432 -0.019519 0.422 0.23859 0.2957 -0.92501
-0.0093432 -0.018738 0.422 0.19602 0.28776 -0.93743
-0.0093432 -0.017957 0.422 0.14397 0.28213 -0.94851
-0.0093432 -0.017177 0.422 0.092321 0.27923 -0.95578
-0.0093432 -0.016396 0.422 0.03056 0.27936 -0.9597
-0.0093432 -0.015615 0.422 -0.039827 0.26987 -0.96207
-0.0093432 -0.014834 0.422 -0.099739 0.26591 -0.95882
-0.0093432 -0.014054 0.422 -0.15868 0.26105 -0.95219
-0.0093432 -0.013273 0.422 -0.21241 0.25279 -0.94392
-0.0093432 -0.012492 0.422 -0.26135 0.24878 -0.93263
-0.0093653 -0.011739 0.423 -0.30082 0.24252 -0.92233
-0.0093653 -0.010957 0.423 -0.33897 0.23113 -0.91196
-0.0093653 -0.010174 0.423 -0.37876 0.22112 -0.89869
-0.0093653 -0.0093913 0.423 -0.41874 0.21345 -0.88266
-0.0093875 -0.008629 0.424 -0.44601 0.20818 -0.87048
-0.0093875 -0.0078446 0.424 -0.46947 0.20194 -0.85955
-0.0094096 -0.0070768 0.425 -0.49318 0.20189 -0.84617
-0.0094096 -0.0062905 0.425 -0.51728 0.20109 -0.83186
-0.0094317 -0.0055171 0.426 -0.53744 0.20581 -0.8178
-0.0094317 -0.004729 0.426 -0.54534 0.20936 -0.81164
-0.0094539 -0.00395 0.427 -0.55063 0.22065 -0.80506
-0.0094539 -0.00316 0.427 -0.54533 0.23016 -0.806
-0.009476 -0.0023756 0.428 -0.54381 0.25434 -0.79974
-0.009476 -0.0015837 0.428 -0.533 0.26927 -0.80213
-0.0094982 -0.00079371 0.429 -0.54993 0.29148 -0.78269
-0.0094982 0 0.429 -0.54202 0.28564 -0.79033
-0.0095203 0.00079556 0.43 -0.57776 0.30091 -0.75871
-0.0095424 0.0015948 0.431 -0.62624 0.31363 -0.71376
-0.0095424 0.0023922 0.431 -0.61096 0.28077 -0.7402
-0.0095867 0.0032044 0.433 -0.72878 0.35503 -0.58553
-0.0096089 0.0040148 0.434 -0.74162 0.36889 -0.56029
-0.009631 0.0048289 0.435 -0.72979 0.36204 -0.57994
-0.0096531 0.0056466 0.436 -0.69124 0.35626 -0.6287
-0.0096753 0.0064681 0.437 -0.63884 0.3695 -0.6748
-0.0096974 0.0072932 0.438 -0.58233 0.39777 -0.709
-0.0096974 0.0081036 0.438 -0.59092 0.40771 -0.69612
-0.0097196 0.0089343 0.439 -0.5902 0.40718 -0.69704
-0.0097196 0.0097465 0.439 -0.55312 0.36517 -0.7488
-0.0097417 0.010583 0.44 -0.59281 0.37519 -0.71261
-0.0097638 0.011423 0.441 -0.64825 0.37014 -0.66541
-0.009786 0.012266 0.442 -0.68494 0.37856 -0.62253
-0.0098303 0.013143 0.444 -0.7716 0.43014 -0.46863
-0.0098745 0.014028 0.446 -0.78614 0.46553 -0.40654
-0.0099188 0.01492 0.448 -0.78433 0.44908 -0.42797
-0.0099631 0.015819 0.45 -0.67532 0.24003 -0.69737
-0.0099852 0.016688 0.451 -0.59679 0.1746 -0.78317
-0.010007 0.017562 0.452 -0.48889 0.07895 -0.86876
-0.01003 0.018438 0.453 -0.35505 -0.050537 -0.93348
-0.010052 0.019319 0.454 -0.24275 -0.12335 -0.96221
-0.010052 0.020159 0.454 -0.28182 -0.09871 -0.95438
-0.010052 0.020999 0.454 -0.26568 -0.08533 -0.96028
-0.010052 0.021839 0.454 -0.2638 -0.10648 -0.95868
-0.010052 0.022679 0.454 -0.26387 -0.13439 -0.95515
-0.010052 0.023519 0.454 -0.28007 -0.14603 -0.94881
-0.010052 0.024359 0.454 -0.27714 -0.1372 -0.95098
-0.0088081 -0.13409 0.434 -0.10974 -0.63385 -0.76563
-0.0088081 -0.13329 0.434 -0.16138 -0.62135 -0.76673
-0.0088081 -0.13249 0.434 -0.19412 -0.60936 -0.76877
-0.0088081 -0.13169 0.434 -0.20641 -0.59832 -0.77421
-0.0088284 -0.13118 0.435 -0.16458 -0.59844 -0.78408
-0.0088284 -0.13038 0.435 -0.1928 -0.58648 -0.78668
-0.0088284 -0.12957 0.435 -0.23247 -0.56822 -0.78936
-0.0088487 -0.12907 0.436 -0.22992 -0.52827 -0.81736
-0.0088487 -0.12826 0.436 -0.2558 -0.51291 -0.81945
-0.0088487 -0.12745 0.436 -0.27188 -0.49478 -0.82539
-0.0088487 -0.12665 0.436 -0.2833 -0.47688 -0.83206
-0.0088487 -0.12584 0.436 -0.29515 -0.45527 -0.84001
-0.008869 -0.12532 0.437 -0.29707 -0.43364 -0.85071
-0.008869 -0.12451 0.437 -0.2968 -0.41722 -0.85898
-0.008869 -0.1237 0.437 -0.27332 -0.39962 -0.87498
-0.0088893 -0.12317 0.438 -0.24104 -0.38397 -0.89133
-0.0088893 -0.12236 0.438 -0.20832 -0.37409 -0.90369
-0.0088893 -0.12155 0.438 -0.16486 -0.35154 -0.92154
-0.0088893 -0.12074 0.438 -0.10942 -0.3258 -0.93909
-0.0088893 -0.11993 0.438 -0.053445 -0.30372 -0.95126
-0.0088893 -0.11912 0.438 -0.02747 -0.29266 -0.95582
-0.0088893 -0.11831 0.438 0.0034905 -0.28283 -0.95916
-0.0088893 -0.1175 0.438 0.014656 -0.27626 -0.96097
-0.0088893 -0.11669 0.438 0.018982 -0.26574 -0.96386
-0.0088893 -0.11588 0.438 0.0075294 -0.26906 -0.96309
-0.0088893 -0.11507 0.438 0.0014257 -0.26618 -0.96392
-0.0088893 -0.11426 0.438 -0.016168 -0.26573 -0.96391
-0.008869 -0.069532 0.437 0.81476 0.33361 -0.4742
-0.0087269 -0.06444 0.43 0.56914 0.34433 -0.74667
-0.0087269 -0.063645 0.43 0.62423 0.38809 -0.67803
-0.0087066 -0.062703 0.429 0.54727 0.40434 -0.73281
-0.0087066 -0.061909 0.429 0.57405 0.41713 -0.70461
-0.0086863 -0.060973 0.428 0.52425 0.40834 -0.74728
-0.0086661 -0.060041 0.427 0.50193 0.39921 -0.76727
-0.0086661 -0.059251 0.427 0.5033 0.40772 -0.76188
-0.0086458 -0.058324 0.426 0.47666 0.39872 -0.78347
-0.0086458 -0.057536 0.426 0.4671 0.40395 -0.78654
-0.0086255 -0.056614 0.425 0.44801 0.39095 -0.80402
-0.0086255 -0.055828 0.425 0.44469 0.38656 -0.80798
-0.0086052 -0.054912 0.424 0.42178 0.36279 -0.83095
-0.0086052 -0.054128 0.424 0.40757 0.36589 -0.83667
-0.0086052 -0.053343 0.424 0.3789 0.36621 -0.8499
-0.0085849 -0.052435 0.423 0.34285 0.36476 -0.86568
-0.0085849 -0.051652 0.423 0.30568 0.36338 -0.88007
-0.0085849 -0.05087 0.423 0.26204 0.36509 -0.89333
-0.0085849 -0.050087 0.423 0.21727 0.35856 -0.90787
-0.0085646 -0.049188 0.422 0.16866 0.35777 -0.91845
-0.0085646 -0.048407 0.422 0.12604 0.35153 -0.92765
-0.0085646 -0.047626 0.422 0.094989 0.3493 -0.93218
-0.0085646 -0.046846 0.422 0.07429 0.35165 -0.93318
-0.0085646 -0.046065 0.422 0.050592 0.35217 -0.93457
-0.0085646 -0.045284 0.422 0.031824 0.3481 -0.93692
-0.0085646 -0.044503 0.422 0.01991 0.34646 -0.93785
-0.0085646 -0.043722 0.422 -0.0049801 0.34565 -0.93835
-0.0085646 -0.042942 0.422 -0.022918 0.34382 -0.93876
-0.0085646 -0.042161 0.422 -0.047965 0.33383 -0.94141
-0.0085646 -0.04138 0.422 -0.068028 0.32723 -0.94249
-0.0085646 -0.040599 0.422 -0.082133 0.32063 -0.94364
-0.0085646 -0.039819 0.422 -0.10016 0.31562 -0.94358
-0.0085646 -0.039038 0.422 -0.11023 0.31079 -0.94407
-0.0085646 -0.038257 0.422 -0.12622 0.30568 -0.94373
-0.0085849 -0.037565 0.423 -0.14954 0.30223 -0.94143
-0.0085849 -0.036783 0.423 -0.16832 0.29499 -0.94056
-0.0085849 -0.036 0.423 -0.18508 0.28776 -0.93965
-0.0085849 -0.035217 0.423 -0.22231 0.28279 -0.93306
-0.0085849 -0.034435 0.423 -0.27064 0.27476 -0.92264
-0.0085849 -0.033652 0.423 -0.31941 0.27836 -0.90581
-0.0086052 -0.032947 0.424 -0.35676 0.28068 -0.89103
-0.0086052 -0.032163 0.424 -0.3666 0.28631 -0.88523
-0.0086052 -0.031378 0.424 -0.35093 0.29662 -0.88818
-0.0086255 -0.030666 0.425 -0.29252 0.31166 -0.90405
-0.0086255 -0.02988 0.425 -0.20304 0.33036 -0.92176
-0.0086458 -0.029162 0.426 -0.087545 0.34234 -0.93549
-0.0086458 -0.028374 0.426 0.050159 0.35014 -0.93535
-0.0086255 -0.027521 0.425 0.18633 0.35526 -0.91601
-0.0086255 -0.026735 0.425 0.28844 0.34948 -0.89144
-0.0086052 -0.025887 0.424 0.36204 0.34093 -0.86758
-0.0086052 -0.025103 0.424 0.4003 0.3289 -0.85533
-0.0086052 -0.024318 0.424 0.41042 0.32023 -0.85382
-0.0085849 -0.023478 0.423 0.40275 0.31732 -0.85854
-0.0085849 -0.022696 0.423 0.37927 0.31104 -0.87144
-0.0085849 -0.021913 0.423 0.34003 0.30528 -0.88949
-0.0085646 -0.02108 0.422 0.30678 0.29155 -0.90603
-0.0085646 -0.0203 0.422 0.26719 0.28011 -0.92204
-0.0085646 -0.019519 0.422 0.22634 0.27224 -0.93523
-0.0085646 -0.018738 0.422 0.18413 0.25988 -0.94792
-0.0085646 -0.017957 0.422 0.13323 0.25354 -0.95811
-0.0085443 -0.017136 0.421 0.084031 0.25548 -0.96315
-0.0085443 -0.016357 0.421 0.025709 0.25535 -0.96651
-0.0085443 -0.015578 0.421 -0.040118 0.25235 -0.9668
-0.0085443 -0.014799 0.421 -0.10053 0.24552 -0.96416
-0.0085443 -0.01402 0.421 -0.1598 0.2436 -0.95662
-0.0085646 -0.013273 0.422 -0.21314 0.23962 -0.94718
-0.0085646 -0.012492 0.422 -0.26216 0.23668 -0.93555
-0.0085646 -0.011711 0.422 -0.30206 0.23472 -0.92394
-0.0085849 -0.010957 0.423 -0.34361 0.22619 -0.91147
-0.0085849 -0.010174 0.423 -0.38202 0.2208 -0.89739
-0.0085849 -0.0093913 0.423 -0.42105 0.2132 -0.88162
-0.0086052 -0.008629 0.424 -0.44714 0.21151 -0.8691
-0.0086052 -0.0078446 0.424 -0.47026 0.20098 -0.85934
-0.0086052 -0.0070601 0.424 -0.49437 0.19881 -0.84621
-0.0086255 -0.0062905 0.425 -0.51691 0.19866 -0.83267
-0.0086458 -0.0055171 0.426 -0.5337 0.20152 -0.82131
-0.0086458 -0.004729 0.426 -0.53866 0.20562 -0.81705
-0.0086661 -0.00395 0.427 -0.54162 0.21825 -0.8118
-0.0086661 -0.00316 0.427 -0.53463 0.23129 -0.81282
-0.0086863 -0.0023756 0.428 -0.52979 0.25572 -0.80865
-0.0086863 -0.0015837 0.428 -0.52131 0.27447 -0.80802
-0.0087066 -0.00079371 0.429 -0.53197 0.29774 -0.79269
-0.0087066 0 0.429 -0.53283 0.29889 -0.79168
-0.0087269 0.00079556 0.43 -0.568 0.31643 -0.75976
-0.0087269 0.0015911 0.43 -0.55522 0.30233 -0.77481
-0.0087472 0.0023922 0.431 -0.63064 0.30475 -0.71374
-0.0087675 0.003197 0.432 -0.68782 0.32203 -0.65054
-0.0087878 0.0040056 0.433 -0.73022 0.35509 -0.58369
-0.0088081 0.0048178 0.434 -0.73816 0.37022 -0.56397
-0.0088487 0.0056466 0.436 -0.66599 0.32039 -0.67365
-0.008869 0.0064681 0.437 -0.60154 0.34446 -0.72077
-0.008869 0.0072766 0.437 -0.62356 0.37804 -0.68429
-0.0088893 0.0081036 0.438 -0.58674 0.39143 -0.70889
-0.0088893 0.008914 0.438 -0.58254 0.37984 -0.71859
-0.0089096 0.0097465 0.439 -0.6002 0.36947 -0.7094
-0.0089299 0.010583 0.44 -0.64542 0.36516 -0.67089
-0.0089299 0.011397 0.44 -0.6047 0.31927 -0.72966
-0.0089502 0.012239 0.441 -0.66619 0.3037 -0.68114
-0.0089908 0.013114 0.443 -0.75899 0.36943 -0.53615
-0.0090314 0.013996 0.445 -0.79626 0.41657 -0.43867
-0.009072 0.014886 0.447 -0.7961 0.44327 -0.41199
-0.0091125 0.015784 0.449 -0.74244 0.28585 -0.60586
-0.0091531 0.016688 0.451 -0.63211 0.088392 -0.76982
-0.0091734 0.017562 0.452 -0.52211 0.013143 -0.85278
-0.0091937 0.018438 0.453 -0.38134 -0.088307 -0.92021
-0.009214 0.019319 0.454 -0.25689 -0.13816 -0.95651
-0.009214 0.020159 0.454 -0.29737 -0.11086 -0.9483
-0.009214 0.020999 0.454 -0.28188 -0.090938 -0.95513
-0.009214 0.021839 0.454 -0.27961 -0.10063 -0.95483
-0.009214 0.022679 0.454 -0.27722 -0.12651 -0.95244
-0.009214 0.023519 0.454 -0.28372 -0.13161 -0.94983
-0.0092343 0.024413 0.455 -0.32125 -0.14762 -0.93542
-0.0080258 -0.1344 0.435 -0.020053 -0.63525 -0.77205
-0.0080258 -0.1336 0.435 -0.076022 -0.62285 -0.77864
-0.0080258 -0.13279 0.435 -0.12536 -0.60748 -0.78438
-0.0080258 -0.13199 0.435 -0.15524 -0.5936 -0.78965
-0.0080258 -0.13118 0.435 -0.16249 -0.58273 -0.79626
-0.0080443 -0.13068 0.436 -0.16487 -0.56561 -0.80802
-0.0080443 -0.12987 0.436 -0.20082 -0.54952 -0.81098
-0.0080443 -0.12907 0.436 -0.22831 -0.52775 -0.81814
-0.0080443 -0.12826 0.436 -0.24702 -0.50623 -0.82627
-0.0080443 -0.12745 0.436 -0.25543 -0.48372 -0.83712
-0.0080627 -0.12694 0.437 -0.25501 -0.45645 -0.85242
-0.0080627 -0.12613 0.437 -0.27427 -0.43962 -0.85528
-0.0080627 -0.12532 0.437 -0.28272 -0.42205 -0.86136
-0.0080627 -0.12451 0.437 -0.27287 -0.40282 -0.87366
-0.0080812 -0.12399 0.438 -0.26458 -0.40972 -0.873
-0.0080812 -0.12317 0.438 -0.22813 -0.39399 -0.89035
-0.0080812 -0.12236 0.438 -0.189 -0.37359 -0.90813
-0.0080812 -0.12155 0.438 -0.14384 -0.34374 -0.92798
-0.0080812 -0.12074 0.438 -0.090249 -0.31174 -0.94587
-0.0080812 -0.11993 0.438 -0.034382 -0.2832 -0.95844
-0.0080812 -0.11912 0.438 -4.7454e-05 -0.26272 -0.96487
-0.0080812 -0.11831 0.438 0.036732 -0.25065 -0.96738
-0.0080812 -0.1175 0.438 0.050982 -0.24782 -0.96746
-0.0080812 -0.11669 0.438 0.052639 -0.24485 -0.96813
-0.0080812 -0.11588 0.438 0.046306 -0.24859 -0.9675
-0.0079151 -0.062703 0.429 0.59594 0.39557 -0.69884
-0.0078967 -0.061765 0.428 0.52181 0.40464 -0.75099
-0.0078782 -0.060831 0.427 0.49331 0.39815 -0.77338
-0.0078782 -0.060041 0.427 0.51023 0.40063 -0.76103
-0.0078598 -0.059112 0.426 0.48277 0.38985 -0.78419
-0.0078598 -0.058324 0.426 0.47484 0.3961 -0.7859
-0.0078413 -0.057401 0.425 0.45483 0.38251 -0.80425
-0.0078413 -0.056614 0.425 0.44493 0.38153 -0.81023
-0.0078229 -0.055697 0.424 0.42907 0.35792 -0.82933
-0.0078229 -0.054912 0.424 0.42116 0.35765 -0.83349
-0.0078229 -0.054128 0.424 0.40289 0.35467 -0.84373
-0.0078044 -0.053217 0.423 0.37213 0.35114 -0.8592
-0.0078044 -0.052435 0.423 0.33365 0.35028 -0.8752
-0.0078044 -0.051652 0.423 0.29652 0.34184 -0.89175
-0.0078044 -0.05087 0.423 0.25299 0.34212 -0.90496
-0.007786 -0.049969 0.422 0.20947 0.33713 -0.91786
-0.007786 -0.049188 0.422 0.16281 0.33063 -0.92961
-0.007786 -0.048407 0.422 0.12347 0.32371 -0.93807
-0.007786 -0.047626 0.422 0.091077 0.32038 -0.9429
-0.007786 -0.046846 0.422 0.075212 0.31901 -0.94476
-0.007786 -0.046065 0.422 0.051336 0.31318 -0.9483
-0.007786 -0.045284 0.422 0.032337 0.30433 -0.95202
-0.007786 -0.044503 0.422 0.020248 0.29985 -0.95377
-0.007786 -0.043722 0.422 -0.005066 0.29806 -0.95453
-0.007786 -0.042942 0.422 -0.023283 0.29983 -0.95371
-0.007786 -0.042161 0.422 -0.048649 0.29311 -0.95484
-0.007786 -0.04138 0.422 -0.068858 0.29184 -0.95399
-0.007786 -0.040599 0.422 -0.082969 0.2906 -0.95324
-0.007786 -0.039819 0.422 -0.10607 0.28811 -0.9517
-0.007786 -0.039038 0.422 -0.12009 0.28581 -0.95073
-0.007786 -0.038257 0.422 -0.13409 0.28252 -0.94984
-0.007786 -0.037476 0.422 -0.15568 0.28346 -0.94626
-0.007786 -0.036696 0.422 -0.17233 0.28175 -0.94389
-0.0078044 -0.036 0.423 -0.19142 0.27739 -0.94149
-0.0078044 -0.035217 0.423 -0.22569 0.27442 -0.93475
-0.0078044 -0.034435 0.423 -0.27581 0.26627 -0.9236
-0.0078044 -0.033652 0.423 -0.3212 0.26852 -0.90814
-0.0078044 -0.03287 0.423 -0.35598 0.27191 -0.89406
-0.0078229 -0.032163 0.424 -0.36196 0.27752 -0.88993
-0.0078229 -0.031378 0.424 -0.34776 0.28853 -0.89208
-0.0078413 -0.030666 0.425 -0.29188 0.30062 -0.90799
-0.0078413 -0.02988 0.425 -0.19556 0.31788 -0.92774
-0.0078413 -0.029093 0.425 -0.078423 0.32668 -0.94187
-0.0078413 -0.028307 0.425 0.061459 0.33412 -0.94052
-0.0078413 -0.027521 0.425 0.19326 0.33703 -0.92144
-0.0078413 -0.026735 0.425 0.29603 0.32728 -0.89736
-0.0078229 -0.025887 0.424 0.36469 0.32133 -0.87393
-0.0078229 -0.025103 0.424 0.40232 0.30953 -0.86159
-0.0078044 -0.024261 0.423 0.40861 0.30197 -0.86131
-0.0078044 -0.023478 0.423 0.39655 0.29636 -0.86886
-0.0078044 -0.022696 0.423 0.36961 0.2874 -0.88362
-0.007786 -0.021861 0.422 0.32733 0.28252 -0.90169
-0.007786 -0.02108 0.422 0.29594 0.26697 -0.91714
-0.007786 -0.0203 0.422 0.25548 0.25379 -0.93291
-0.007786 -0.019519 0.422 0.21511 0.23857 -0.947
-0.0077675 -0.018694 0.421 0.1745 0.22286 -0.9591
-0.0077675 -0.017915 0.421 0.12567 0.21674 -0.96811
-0.0077675 -0.017136 0.421 0.079781 0.21285 -0.97382
-0.0077675 -0.016357 0.421 0.025977 0.21346 -0.97661
-0.0077675 -0.015578 0.421 -0.040514 0.21237 -0.97635
-0.0077675 -0.014799 0.421 -0.10156 0.20255 -0.97399
-0.0077675 -0.01402 0.421 -0.1613 0.20389 -0.96562
-0.0077675 -0.013241 0.421 -0.21533 0.20562 -0.95465
-0.007786 -0.012492 0.422 -0.26418 0.20357 -0.94274
-0.007786 -0.011711 0.422 -0.30409 0.20578 -0.93015
-0.007786 -0.010931 0.422 -0.35042 0.20231 -0.91448
-0.0078044 -0.010174 0.423 -0.38688 0.20146 -0.89986
-0.0078044 -0.0093913 0.423 -0.42081 0.19907 -0.88504
-0.0078044 -0.0086087 0.423 -0.44749 0.2015 -0.87129
-0.0078229 -0.0078446 0.424 -0.46935 0.19593 -0.861
-0.0078229 -0.0070601 0.424 -0.49379 0.19125 -0.84829
-0.0078413 -0.0062905 0.425 -0.51265 0.19676 -0.83575
-0.0078413 -0.0055042 0.425 -0.52834 0.19704 -0.82585
-0.0078598 -0.004729 0.426 -0.53079 0.20033 -0.82349
-0.0078598 -0.0039408 0.426 -0.52967 0.20834 -0.82222
-0.0078782 -0.00316 0.427 -0.52478 0.2282 -0.82008
-0.0078782 -0.00237 0.427 -0.51338 0.24584 -0.82219
-0.0078967 -0.0015837 0.428 -0.51387 0.27404 -0.81292
-0.0078967 -0.00079186 0.428 -0.5009 0.28552 -0.81705
-0.0079151 0 0.429 -0.52514 0.303 -0.79525
-0.0079151 0.00079371 0.429 -0.52201 0.29625 -0.79984
-0.0079336 0.0015911 0.43 -0.56851 0.31016 -0.76197
-0.0079336 0.0023867 0.43 -0.54865 0.28159 -0.7872
-0.007952 0.0031896 0.431 -0.629 0.27709 -0.72635
-0.0079705 0.0039963 0.432 -0.68257 0.29786 -0.66736
-0.0080074 0.0048178 0.434 -0.73309 0.36627 -0.57309
-0.0080258 0.0056337 0.435 -0.70186 0.35728 -0.61624
-0.0080443 0.0064533 0.436 -0.65338 0.34825 -0.67217
-0.0080627 0.0072766 0.437 -0.60042 0.35886 -0.71464
-0.0080812 0.0081036 0.438 -0.56406 0.37507 -0.73563
-0.0080812 0.008914 0.438 -0.59358 0.38173 -0.70848
-0.0080812 0.0097243 0.438 -0.55978 0.35521 -0.74865
-0.0080996 0.010559 0.439 -0.59661 0.34003 -0.72693
-0.0081181 0.011397 0.44 -0.66194 0.32718 -0.67438
-0.0081365 0.012239 0.441 -0.70986 0.3208 -0.62705
-0.0081734 0.013114 0.443 -0.7755 0.37608 -0.50711
-0.0081919 0.013965 0.444 -0.77589 0.39219 -0.49414
-0.0082288 0.014853 0.446 -0.7787 0.43943 -0.44781
-0.0082657 0.015748 0.448 -0.79754 0.43857 -0.41423
-0.0083026 0.016651 0.45 -0.74668 0.12043 -0.65419
-0.008321 0.017523 0.451 -0.66508 0.080692 -0.7424
-0.0083579 0.018438 0.453 -0.40073 -0.1084 -0.90976
-0.0083764 0.019319 0.454 -0.26503 -0.15162 -0.95225
-0.0083764 0.020159 0.454 -0.30624 -0.11656 -0.94479
-0.0083764 0.020999 0.454 -0.30053 -0.09614 -0.94892
-0.0083764 0.021839 0.454 -0.29717 -0.090643 -0.95051
-0.0083764 0.022679 0.454 -0.29237 -0.11122 -0.94982
-0.0083948 0.023571 0.455 -0.30655 -0.12135 -0.94409
-0.0083948 0.024413 0.455 -0.31974 -0.12306 -0.93948
-0.0072399 -0.13471 0.436 0.077524 -0.62507 -0.77671
-0.0072399 -0.13391 0.436 0.022158 -0.61508 -0.78815
-0.0072399 -0.1331 0.436 -0.04807 -0.6023 -0.79682
-0.0072399 -0.13229 0.436 -0.10718 -0.58545 -0.80359
-0.0072399 -0.13149 0.436 -0.1413 -0.57385 -0.80668
-0.0072399 -0.13068 0.436 -0.16445 -0.55871 -0.81289
-0.0072399 -0.12987 0.436 -0.20137 -0.54039 -0.81697
-0.0072399 -0.12907 0.436 -0.22477 -0.51603 -0.82656
-0.0072565 -0.12855 0.437 -0.23466 -0.50056 -0.83329
-0.0072565 -0.12774 0.437 -0.24504 -0.47986 -0.84243
-0.0072565 -0.12694 0.437 -0.24868 -0.45499 -0.85507
-0.0072565 -0.12613 0.437 -0.25375 -0.43315 -0.86486
-0.0072565 -0.12532 0.437 -0.24995 -0.40779 -0.8782
-0.0072731 -0.1248 0.438 -0.2637 -0.42855 -0.86418
-0.0072731 -0.12399 0.438 -0.23675 -0.41222 -0.87979
-0.0072731 -0.12317 0.438 -0.19378 -0.38425 -0.90266
-0.0072731 -0.12236 0.438 -0.15141 -0.35465 -0.92266
-0.0072897 -0.12183 0.439 -0.16715 -0.43539 -0.88459
-0.0072731 -0.12074 0.438 -0.062372 -0.25655 -0.96452
-0.0072731 -0.11993 0.438 -0.010343 -0.22422 -0.97448
-0.0072731 -0.11912 0.438 0.027852 -0.19727 -0.97995
-0.0072731 -0.11831 0.438 0.063349 -0.18871 -0.97999
-0.0072731 -0.1175 0.438 0.085638 -0.18909 -0.97822
-0.0072731 -0.11669 0.438 0.093188 -0.19214 -0.97693
-0.0072731 -0.11588 0.438 0.092116 -0.20355 -0.97472
-0.00719 -0.067293 0.433 0.75174 0.34274 -0.5634
-0.0071236 -0.063497 0.429 0.62926 0.34614 -0.69586
-0.007107 -0.062557 0.428 0.55319 0.35923 -0.75162
-0.007107 -0.061765 0.428 0.55901 0.38299 -0.73541
-0.0070904 -0.060831 0.427 0.51175 0.38955 -0.76574
-0.0070738 -0.0599 0.426 0.48547 0.36983 -0.79218
-0.0070738 -0.059112 0.426 0.48575 0.38363 -0.78541
-0.0070572 -0.058187 0.425 0.45895 0.3714 -0.80711
-0.0070572 -0.057401 0.425 0.45594 0.37226 -0.80842
-0.0070572 -0.056614 0.425 0.44322 0.36632 -0.81815
-0.0070406 -0.055697 0.424 0.43357 0.35106 -0.82992
-0.0070406 -0.054912 0.424 0.41904 0.34809 -0.83859
-0.007024 -0.054 0.423 0.39539 0.33561 -0.855
-0.007024 -0.053217 0.423 0.36995 0.33414 -0.86689
-0.007024 -0.052435 0.423 0.32796 0.33079 -0.88488
-0.0070074 -0.05153 0.422 0.28816 0.32173 -0.90192
-0.0070074 -0.050749 0.422 0.24239 0.31647 -0.91711
-0.0070074 -0.049969 0.422 0.1966 0.30837 -0.93073
-0.0070074 -0.049188 0.422 0.14985 0.30286 -0.94118
-0.0070074 -0.048407 0.422 0.10679 0.29636 -0.94909
-0.0070074 -0.047626 0.422 0.077896 0.29256 -0.95307
-0.0070074 -0.046846 0.422 0.061871 0.28827 -0.95555
-0.0070074 -0.046065 0.422 0.038677 0.28115 -0.95888
-0.0070074 -0.045284 0.422 0.021439 0.27285 -0.96182
-0.0070074 -0.044503 0.422 0.01226 0.27101 -0.9625
-0.0070074 -0.043722 0.422 -0.0040902 0.26819 -0.96336
-0.0069908 -0.04284 0.421 -0.019468 0.26873 -0.96302
-0.0070074 -0.042161 0.422 -0.036818 0.26517 -0.9635
-0.0070074 -0.04138 0.422 -0.055195 0.264 -0.96294
-0.0070074 -0.040599 0.422 -0.068444 0.26283 -0.96241
-0.0070074 -0.039819 0.422 -0.091743 0.26328 -0.96035
-0.0070074 -0.039038 0.422 -0.11202 0.25896 -0.95937
-0.0070074 -0.038257 0.422 -0.13209 0.25737 -0.95724
-0.0070074 -0.037476 0.422 -0.15494 0.25651 -0.95404
-0.0070074 -0.036696 0.422 -0.17368 0.25476 -0.95128
-0.0070074 -0.035915 0.422 -0.20109 0.24966 -0.94722
-0.0070074 -0.035134 0.422 -0.23254 0.24881 -0.94022
-0.007024 -0.034435 0.423 -0.28401 0.24108 -0.92802
-0.007024 -0.033652 0.423 -0.3261 0.24221 -0.91378
-0.007024 -0.03287 0.423 -0.35769 0.24636 -0.90076
-0.0070406 -0.032163 0.424 -0.36047 0.25258 -0.89792
-0.0070406 -0.031378 0.424 -0.34329 0.25961 -0.90264
-0.0070572 -0.030666 0.425 -0.2839 0.27248 -0.91932
-0.0070572 -0.02988 0.425 -0.19004 0.28625 -0.93912
-0.0070572 -0.029093 0.425 -0.065295 0.29552 -0.9531
-0.0070572 -0.028307 0.425 0.076103 0.30257 -0.95008
-0.0070572 -0.027521 0.425 0.20311 0.30334 -0.93098
-0.0070406 -0.026672 0.424 0.30552 0.29991 -0.90372
-0.0070406 -0.025887 0.424 0.36793 0.29538 -0.88169
-0.007024 -0.025043 0.423 0.4004 0.29006 -0.86922
-0.007024 -0.024261 0.423 0.40124 0.28331 -0.87106
-0.007024 -0.023478 0.423 0.38511 0.27618 -0.88057
-0.0070074 -0.022642 0.422 0.35489 0.26567 -0.89637
-0.0070074 -0.021861 0.422 0.31744 0.26058 -0.91177
-0.0070074 -0.02108 0.422 0.283 0.25086 -0.92573
-0.0070074 -0.0203 0.422 0.24605 0.24238 -0.93846
-0.0069908 -0.019473 0.421 0.20633 0.23198 -0.95059
-0.0069908 -0.018694 0.421 0.16174 0.21948 -0.96212
-0.0069908 -0.017915 0.421 0.11685 0.20419 -0.97193
-0.0069908 -0.017136 0.421 0.075934 0.19605 -0.97765
-0.0069908 -0.016357 0.421 0.02192 0.19257 -0.98104
-0.0069908 -0.015578 0.421 -0.04484 0.19342 -0.98009
-0.0069908 -0.014799 0.421 -0.11113 0.18643 -0.97616
-0.0069908 -0.01402 0.421 -0.16973 0.19081 -0.96684
-0.0069908 -0.013241 0.421 -0.21687 0.19292 -0.95695
-0.0070074 -0.012492 0.422 -0.26879 0.18703 -0.94487
-0.0070074 -0.011711 0.422 -0.3064 0.18293 -0.93416
-0.0070074 -0.010931 0.422 -0.35027 0.18 -0.91919
-0.007024 -0.010174 0.423 -0.38944 0.17844 -0.9036
-0.007024 -0.0093913 0.423 -0.42117 0.18563 -0.88778
-0.007024 -0.0086087 0.423 -0.44616 0.192 -0.87412
-0.0070406 -0.0078446 0.424 -0.46621 0.19197 -0.8636
-0.0070406 -0.0070601 0.424 -0.48969 0.18492 -0.85206
-0.0070572 -0.0062905 0.425 -0.50821 0.18983 -0.84005
-0.0070572 -0.0055042 0.425 -0.52401 0.19105 -0.83001
-0.0070738 -0.004729 0.426 -0.52353 0.19317 -0.82982
-0.0070738 -0.0039408 0.426 -0.52469 0.20531 -0.82616
-0.0070904 -0.00316 0.427 -0.51516 0.22091 -0.82813
-0.0070904 -0.00237 0.427 -0.50523 0.23833 -0.82942
-0.007107 -0.0015837 0.428 -0.49936 0.26748 -0.82407
-0.007107 -0.00079186 0.428 -0.49099 0.2779 -0.82565
-0.007107 0 0.428 -0.48534 0.26828 -0.83215
-0.0071236 0.00079371 0.429 -0.52559 0.28997 -0.79979
-0.0071236 0.0015874 0.429 -0.5205 0.26539 -0.81157
-0.0071402 0.0023867 0.43 -0.57815 0.28327 -0.76518
-0.0071402 0.0031822 0.43 -0.51431 0.26873 -0.81441
-0.0071568 0.003987 0.431 -0.62258 0.24863 -0.74201
-0.00719 0.0048067 0.433 -0.73345 0.35255 -0.58117
-0.0072232 0.0056337 0.435 -0.67728 0.3275 -0.65881
-0.0072399 0.0064533 0.436 -0.61908 0.32222 -0.71618
-0.0072565 0.0072766 0.437 -0.56352 0.32621 -0.75897
-0.0072565 0.0080851 0.437 -0.59346 0.36787 -0.71587
-0.0072731 0.008914 0.438 -0.59496 0.36088 -0.71819
-0.0072731 0.0097243 0.438 -0.60006 0.34464 -0.72191
-0.0072897 0.010559 0.439 -0.63975 0.32956 -0.69434
-0.0072897 0.011371 0.439 -0.58435 0.30081 -0.75369
-0.0073063 0.012211 0.44 -0.67114 0.27262 -0.68938
-0.0073395 0.013084 0.442 -0.75435 0.33435 -0.56494
-0.0073727 0.013965 0.444 -0.76555 0.37676 -0.52152
-0.0073893 0.01482 0.445 -0.76044 0.40883 -0.50457
-0.0074059 0.015678 0.446 -0.71951 0.44454 -0.53357
-0.0074391 0.016577 0.448 -0.77347 0.46744 -0.42807
-0.0074889 0.017523 0.451 -0.68382 0.066075 -0.72665
-0.0075055 0.018398 0.452 -0.57825 0.0053651 -0.81584
-0.0075221 0.019277 0.453 -0.43353 -0.069532 -0.89845
-0.0075387 0.020159 0.454 -0.30604 -0.11717 -0.94478
-0.0075387 0.020999 0.454 -0.31218 -0.09523 -0.94524
-0.0075387 0.021839 0.454 -0.30926 -0.083541 -0.9473
-0.0075387 0.022679 0.454 -0.30438 -0.097362 -0.94756
-0.0075554 0.023571 0.455 -0.30929 -0.10653 -0.94498
-0.0075554 0.024413 0.455 -0.31424 -0.10658 -0.94334
-0.0064502 -0.13502 0.437 0.1671 -0.62414 -0.76323
-0.0064354 -0.13391 0.436 -0.11405 -0.59355 -0.79668
-0.0064354 -0.1331 0.436 -0.14385 -0.57573 -0.80488
-0.0064354 -0.13229 0.436 -0.16145 -0.55378 -0.81686
-0.0064354 -0.13149 0.436 -0.15686 -0.53631 -0.82932
-0.0064502 -0.13098 0.437 -0.14594 -0.57289 -0.80653
-0.0064502 -0.13017 0.437 -0.18425 -0.54806 -0.81589
-0.0064502 -0.12936 0.437 -0.21311 -0.5194 -0.82753
-0.0064502 -0.12855 0.437 -0.23092 -0.48628 -0.84274
-0.0064502 -0.12774 0.437 -0.23944 -0.44609 -0.86236
-0.0064502 -0.12694 0.437 -0.23592 -0.40948 -0.88129
-0.0064649 -0.12642 0.438 -0.24506 -0.46016 -0.85335
-0.0064649 -0.12561 0.438 -0.24978 -0.43454 -0.86532
-0.0064649 -0.1248 0.438 -0.23982 -0.39756 -0.88568
-0.0064649 -0.12399 0.438 -0.21102 -0.36606 -0.90635
-0.0064649 -0.12317 0.438 -0.16587 -0.32223 -0.93202
-0.0064797 -0.12264 0.439 -0.17836 -0.44254 -0.87883
-0.0064797 -0.12183 0.439 -0.14681 -0.41493 -0.89793
-0.0064797 -0.12102 0.439 -0.10456 -0.38602 -0.91655
-0.0064797 -0.12021 0.439 -0.054199 -0.36944 -0.92767
-0.0064797 -0.1194 0.439 -0.035892 -0.36046 -0.93208
-0.0064797 -0.11858 0.439 -0.0025446 -0.36393 -0.93142
-0.0064649 -0.1175 0.438 0.11703 -0.092811 -0.98878
-0.0064649 -0.11669 0.438 0.12989 -0.10762 -0.98567
-0.0064649 -0.11588 0.438 0.13454 -0.13228 -0.98204
-0.0064354 -0.070179 0.436 0.72602 0.39852 -0.56042
-0.0064207 -0.069214 0.435 0.78611 0.34764 -0.51106
-0.0064059 -0.068252 0.434 0.78595 0.35892 -0.50345
-0.0063469 -0.065236 0.43 0.66823 0.30601 -0.6781
-0.0063321 -0.06429 0.429 0.6383 0.29561 -0.71076
-0.0063173 -0.063349 0.428 0.57626 0.30797 -0.75702
-0.0063173 -0.062557 0.428 0.59056 0.34729 -0.72845
-0.0063026 -0.061621 0.427 0.52202 0.35847 -0.77395
-0.0062878 -0.060688 0.426 0.48649 0.3529 -0.79924
-0.0062878 -0.0599 0.426 0.49643 0.36058 -0.78964
-0.0062731 -0.058973 0.425 0.46726 0.34591 -0.81364
-0.0062731 -0.058187 0.425 0.46116 0.3578 -0.81198
-0.0062731 -0.057401 0.425 0.45068 0.35109 -0.82074
-0.0062583 -0.056481 0.424 0.43279 0.33736 -0.83599
-0.0062583 -0.055697 0.424 0.42839 0.32971 -0.84129
-0.0062435 -0.054783 0.423 0.40862 0.31523 -0.85654
-0.0062435 -0.054 0.423 0.39546 0.31038 -0.86445
-0.0062435 -0.053217 0.423 0.36101 0.30605 -0.88091
-0.0062288 -0.052311 0.422 0.31783 0.30077 -0.89918
-0.0062288 -0.05153 0.422 0.27704 0.29081 -0.91579
-0.0062288 -0.050749 0.422 0.22734 0.28487 -0.93122
-0.0062288 -0.049969 0.422 0.18426 0.27563 -0.94344
-0.0062288 -0.049188 0.422 0.14145 0.27203 -0.95184
-0.0062288 -0.048407 0.422 0.097697 0.26691 -0.95876
-0.006214 -0.047513 0.421 0.074685 0.26424 -0.96156
-0.006214 -0.046735 0.421 0.064534 0.26253 -0.96276
-0.006214 -0.045956 0.421 0.042138 0.25521 -0.96597
-0.006214 -0.045177 0.421 0.026785 0.24861 -0.96823
-0.006214 -0.044398 0.421 0.014441 0.24481 -0.96946
-0.006214 -0.043619 0.421 -0.0051631 0.24096 -0.97052
-0.006214 -0.04284 0.421 -0.023726 0.2438 -0.96953
-0.006214 -0.042061 0.421 -0.044315 0.2446 -0.96861
-0.006214 -0.041282 0.421 -0.065812 0.24816 -0.96648
-0.006214 -0.040503 0.421 -0.076059 0.24702 -0.96602
-0.0062288 -0.039819 0.422 -0.096159 0.24891 -0.96374
-0.0062288 -0.039038 0.422 -0.10846 0.24285 -0.96398
-0.0062288 -0.038257 0.422 -0.12572 0.23852 -0.96297
-0.0062288 -0.037476 0.422 -0.15063 0.24055 -0.95888
-0.0062288 -0.036696 0.422 -0.17125 0.24353 -0.95465
-0.0062288 -0.035915 0.422 -0.20076 0.23743 -0.95043
-0.0062288 -0.035134 0.422 -0.2341 0.23844 -0.94252
-0.0062435 -0.034435 0.423 -0.28285 0.23195 -0.9307
-0.0062435 -0.033652 0.423 -0.32786 0.23119 -0.916
-0.0062435 -0.03287 0.423 -0.35832 0.23026 -0.90476
-0.0062435 -0.032087 0.423 -0.3615 0.23175 -0.90311
-0.0062583 -0.031378 0.424 -0.33885 0.23424 -0.91121
-0.0062583 -0.030594 0.424 -0.27391 0.2477 -0.92931
-0.0062731 -0.02988 0.425 -0.17821 0.2566 -0.94995
-0.0062731 -0.029093 0.425 -0.052766 0.26512 -0.96277
-0.0062731 -0.028307 0.425 0.088013 0.26634 -0.95985
-0.0062731 -0.027521 0.425 0.20809 0.26977 -0.94017
-0.0062583 -0.026672 0.424 0.3086 0.26735 -0.91285
-0.0062583 -0.025887 0.424 0.36897 0.2647 -0.89095
-0.0062435 -0.025043 0.423 0.39537 0.2613 -0.88057
-0.0062435 -0.024261 0.423 0.39436 0.25628 -0.88249
-0.0062288 -0.023423 0.422 0.37777 0.24832 -0.89198
-0.0062288 -0.022642 0.422 0.34519 0.24547 -0.90586
-0.0062288 -0.021861 0.422 0.30764 0.24251 -0.92008
-0.0062288 -0.02108 0.422 0.27387 0.23959 -0.93145
-0.0062288 -0.0203 0.422 0.23916 0.23251 -0.94273
-0.006214 -0.019473 0.421 0.20268 0.22739 -0.95248
-0.006214 -0.018694 0.421 0.15675 0.21966 -0.9629
-0.006214 -0.017915 0.421 0.1118 0.20233 -0.97292
-0.006214 -0.017136 0.421 0.066684 0.19119 -0.97929
-0.006214 -0.016357 0.421 0.014641 0.18355 -0.9829
-0.006214 -0.015578 0.421 -0.050111 0.18635 -0.9812
-0.006214 -0.014799 0.421 -0.11939 0.18326 -0.97579
-0.006214 -0.01402 0.421 -0.17509 0.17974 -0.96801
-0.006214 -0.013241 0.421 -0.21947 0.17713 -0.95941
-0.006214 -0.012463 0.421 -0.27401 0.16877 -0.9468
-0.0062288 -0.011711 0.422 -0.31194 0.16347 -0.93593
-0.0062288 -0.010931 0.422 -0.35144 0.16108 -0.92225
-0.0062288 -0.01015 0.422 -0.39153 0.15925 -0.90628
-0.0062435 -0.0093913 0.423 -0.42237 0.17017 -0.89031
-0.0062435 -0.0086087 0.423 -0.44426 0.17981 -0.87767
-0.0062435 -0.0078261 0.423 -0.46264 0.18583 -0.86685
-0.0062583 -0.0070601 0.424 -0.48367 0.17613 -0.85735
-0.0062731 -0.0062905 0.425 -0.50426 0.18359 -0.84381
-0.0062731 -0.0055042 0.425 -0.51521 0.19058 -0.83561
-0.0062731 -0.0047179 0.425 -0.51468 0.19565 -0.83476
-0.0062878 -0.0039408 0.426 -0.51497 0.20838 -0.8315
-0.0063026 -0.00316 0.427 -0.50344 0.22352 -0.83462
-0.0063026 -0.00237 0.427 -0.49428 0.24034 -0.83542
-0.0063026 -0.00158 0.427 -0.48258 0.25701 -0.8373
-0.0063173 -0.00079186 0.428 -0.48243 0.27134 -0.83285
-0.0063173 0 0.428 -0.48385 0.26365 -0.83449
-0.0063321 0.00079371 0.429 -0.52494 0.28041 -0.80362
-0.0063321 0.0015874 0.429 -0.53888 0.26186 -0.80064
-0.0063321 0.0023811 0.429 -0.50774 0.2229 -0.83217
-0.0063469 0.0031822 0.43 -0.5728 0.25464 -0.77914
-0.0063616 0.003987 0.431 -0.66203 0.24616 -0.7079
-0.0063764 0.0047956 0.432 -0.70611 0.27381 -0.65302
-0.0064207 0.0056337 0.435 -0.64249 0.29627 -0.70671
-0.0064207 0.0064385 0.435 -0.67713 0.3382 -0.65354
-0.0064354 0.0072599 0.436 -0.61383 0.34395 -0.71057
-0.0064502 0.0080851 0.437 -0.57391 0.34513 -0.74264
-0.0064502 0.0088936 0.437 -0.60588 0.35256 -0.71317
-0.0064649 0.0097243 0.438 -0.62064 0.33452 -0.70916
-0.0064649 0.010535 0.438 -0.59022 0.3083 -0.74605
-0.0064797 0.011371 0.439 -0.64203 0.28973 -0.70983
-0.0064945 0.012211 0.44 -0.70484 0.28136 -0.65118
-0.006524 0.013084 0.442 -0.75766 0.33268 -0.5615
-0.0065387 0.013933 0.443 -0.74318 0.36033 -0.56378
-0.0065683 0.01482 0.445 -0.7214 0.42282 -0.54847
-0.0065683 0.015643 0.445 -0.70383 0.41103 -0.57938
-0.0065978 0.01654 0.447 -0.73702 0.48799 -0.46763
-0.0066125 0.017406 0.448 -0.71484 0.51749 -0.47033
-0.0066863 0.018438 0.453 -0.39945 -0.11113 -0.91
-0.0066863 0.019277 0.453 -0.44425 -0.077537 -0.89254
-0.0067011 0.020159 0.454 -0.30999 -0.12935 -0.9419
-0.0067011 0.020999 0.454 -0.32831 -0.10485 -0.93873
-0.0067011 0.021839 0.454 -0.3298 -0.090956 -0.93966
-0.0067011 0.022679 0.454 -0.3236 -0.096337 -0.94128
-0.0067159 0.023571 0.455 -0.31871 -0.10589 -0.94192
-0.0067159 0.024413 0.455 -0.31557 -0.10703 -0.94285
-0.0056439 -0.13583 0.437 0.043221 -0.63144 -0.77422
-0.0056439 -0.13502 0.437 0.01342 -0.62512 -0.78041
-0.0056439 -0.13421 0.437 -0.021896 -0.61192 -0.79062
-0.0056439 -0.1334 0.437 -0.067278 -0.59797 -0.79869
-0.0056439 -0.1326 0.437 -0.10096 -0.57897 -0.80907
-0.0056439 -0.13179 0.437 -0.12145 -0.55998 -0.81955
-0.0056439 -0.13098 0.437 -0.13881 -0.53152 -0.83559
-0.0056439 -0.13017 0.437 -0.1757 -0.50359 -0.84589
-0.0056439 -0.12936 0.437 -0.20706 -0.46524 -0.86063
-0.0056439 -0.12855 0.437 -0.2268 -0.4159 -0.88067
-0.0056568 -0.12804 0.438 -0.21735 -0.50311 -0.83645
-0.0056568 -0.12723 0.438 -0.22059 -0.46372 -0.85808
-0.0056568 -0.12642 0.438 -0.22868 -0.42049 -0.87801
-0.0056568 -0.12561 0.438 -0.23214 -0.37564 -0.89722
-0.0056568 -0.1248 0.438 -0.21735 -0.32847 -0.91917
-0.0056697 -0.12427 0.439 -0.22504 -0.47246 -0.85214
-0.0056697 -0.12346 0.439 -0.18723 -0.44014 -0.87819
-0.0056697 -0.12264 0.439 -0.1502 -0.41072 -0.89931
-0.0056697 -0.12183 0.439 -0.11406 -0.37591 -0.91961
-0.0056697 -0.12102 0.439 -0.070893 -0.34403 -0.93628
-0.0056697 -0.12021 0.439 -0.028913 -0.32453 -0.94543
-0.0056697 -0.1194 0.439 -0.010094 -0.30608 -0.95195
-0.0056697 -0.11858 0.439 0.022705 -0.30602 -0.95175
-0.0056439 -0.07034 0.437 0.88766 0.27186 -0.3717
-0.0056181 -0.069214 0.435 0.82018 0.33943 -0.46053
-0.0055923 -0.068094 0.433 0.76721 0.31813 -0.55694
-0.0055793 -0.067138 0.432 0.74278 0.32642 -0.58457
-0.0055406 -0.065084 0.429 0.6254 0.24696 -0.74019
-0.0055406 -0.06429 0.429 0.6702 0.30975 -0.67445
-0.0055277 -0.063349 0.428 0.6186 0.30381 -0.72459
-0.0055148 -0.062411 0.427 0.55768 0.31004 -0.76998
-0.0055148 -0.061621 0.427 0.55301 0.3426 -0.75948
-0.0055018 -0.060688 0.426 0.50808 0.34417 -0.78956
-0.0054889 -0.059759 0.425 0.47525 0.32052 -0.81939
-0.0054889 -0.058973 0.425 0.47368 0.33849 -0.81305
-0.0054889 -0.058187 0.425 0.45924 0.34071 -0.82037
-0.005476 -0.057265 0.424 0.43296 0.32713 -0.83996
-0.005476 -0.056481 0.424 0.4266 0.32307 -0.84477
-0.005476 -0.055697 0.424 0.41746 0.312 -0.85346
-0.0054631 -0.054783 0.423 0.40009 0.30403 -0.86458
-0.0054631 -0.054 0.423 0.3796 0.29618 -0.87646
-0.0054502 -0.053092 0.422 0.34602 0.2874 -0.89312
-0.0054502 -0.052311 0.422 0.30746 0.28451 -0.90803
-0.0054502 -0.05153 0.422 0.26846 0.27553 -0.92305
-0.0054502 -0.050749 0.422 0.22652 0.26949 -0.93598
-0.0054373 -0.04985 0.421 0.18739 0.26122 -0.94691
-0.0054373 -0.049071 0.421 0.14821 0.26017 -0.95412
-0.0054373 -0.048292 0.421 0.10845 0.25202 -0.96163
-0.0054373 -0.047513 0.421 0.089254 0.24963 -0.96422
-0.0054373 -0.046735 0.421 0.07712 0.24507 -0.96643
-0.0054373 -0.045956 0.421 0.051601 0.23774 -0.96996
-0.0054373 -0.045177 0.421 0.032058 0.23306 -0.97193
-0.0054373 -0.044398 0.421 0.014487 0.23218 -0.97256
-0.0054373 -0.043619 0.421 -0.010373 0.2224 -0.9749
-0.0054373 -0.04284 0.421 -0.033169 0.22327 -0.97419
-0.0054373 -0.042061 0.421 -0.056947 0.22303 -0.97315
-0.0054373 -0.041282 0.421 -0.080555 0.22658 -0.97066
-0.0054373 -0.040503 0.421 -0.091825 0.22636 -0.96971
-0.0054373 -0.039724 0.421 -0.11209 0.23074 -0.96654
-0.0054502 -0.039038 0.422 -0.12303 0.22799 -0.96586
-0.0054502 -0.038257 0.422 -0.13832 0.22172 -0.96525
-0.0054502 -0.037476 0.422 -0.16028 0.22194 -0.9618
-0.0054502 -0.036696 0.422 -0.17696 0.22515 -0.95812
-0.0054502 -0.035915 0.422 -0.20141 0.22407 -0.95353
-0.0054502 -0.035134 0.422 -0.23476 0.2271 -0.94515
-0.0054502 -0.034353 0.422 -0.28382 0.22682 -0.93166
-0.0054631 -0.033652 0.423 -0.32844 0.22384 -0.91762
-0.0054631 -0.03287 0.423 -0.35902 0.22209 -0.90652
-0.0054631 -0.032087 0.423 -0.36228 0.22269 -0.90507
-0.005476 -0.031378 0.424 -0.33997 0.22056 -0.91421
-0.005476 -0.030594 0.424 -0.27069 0.22856 -0.93514
-0.005476 -0.029809 0.424 -0.17558 0.23849 -0.95514
-0.0054889 -0.029093 0.425 -0.044909 0.2453 -0.96841
-0.0054889 -0.028307 0.425 0.094568 0.2454 -0.9648
-0.005476 -0.027456 0.424 0.2185 0.24575 -0.94439
-0.005476 -0.026672 0.424 0.32026 0.24218 -0.91585
-0.0054631 -0.025826 0.423 0.3781 0.23719 -0.89486
-0.0054631 -0.025043 0.423 0.40049 0.23477 -0.88571
-0.0054631 -0.024261 0.423 0.39653 0.2273 -0.88944
-0.0054502 -0.023423 0.422 0.37606 0.22368 -0.89919
-0.0054502 -0.022642 0.422 0.3393 0.22525 -0.91331
-0.0054502 -0.021861 0.422 0.30274 0.22545 -0.92602
-0.0054502 -0.02108 0.422 0.26566 0.22524 -0.93739
-0.0054373 -0.020252 0.421 0.23372 0.22102 -0.94685
-0.0054373 -0.019473 0.421 0.19444 0.21623 -0.95678
-0.0054373 -0.018694 0.421 0.15215 0.20811 -0.9662
-0.0054373 -0.017915 0.421 0.10694 0.19051 -0.97584
-0.0054373 -0.017136 0.421 0.057494 0.17722 -0.98249
-0.0054373 -0.016357 0.421 0.0020964 0.17143 -0.98519
-0.0054373 -0.015578 0.421 -0.059588 0.17619 -0.98255
-0.0054373 -0.014799 0.421 -0.13101 0.16694 -0.97723
-0.0054373 -0.01402 0.421 -0.18762 0.1614 -0.96889
-0.0054373 -0.013241 0.421 -0.22713 0.15406 -0.9616
-0.0054373 -0.012463 0.421 -0.27675 0.14907 -0.94931
-0.0054502 -0.011711 0.422 -0.31469 0.144 -0.93821
-0.0054502 -0.010931 0.422 -0.34903 0.14217 -0.92626
-0.0054502 -0.01015 0.422 -0.38856 0.14073 -0.91061
-0.0054502 -0.0093691 0.422 -0.41959 0.15525 -0.89434
-0.0054631 -0.0086087 0.423 -0.43712 0.16615 -0.88392
-0.0054631 -0.0078261 0.423 -0.45732 0.17229 -0.87245
-0.005476 -0.0070601 0.424 -0.47587 0.17 -0.86293
-0.005476 -0.0062757 0.424 -0.49958 0.17946 -0.84747
-0.0054889 -0.0055042 0.425 -0.50929 0.18549 -0.84037
-0.0054889 -0.0047179 0.425 -0.50852 0.19314 -0.83911
-0.0055018 -0.0039408 0.426 -0.50615 0.20137 -0.83861
-0.0055018 -0.0031526 0.426 -0.49646 0.21847 -0.84012
-0.0055148 -0.00237 0.427 -0.48546 0.23192 -0.84294
-0.0055148 -0.00158 0.427 -0.47867 0.24924 -0.84188
-0.0055277 -0.00079186 0.428 -0.47766 0.25714 -0.84007
-0.0055277 0 0.428 -0.48371 0.25308 -0.83784
-0.0055277 0.00079186 0.428 -0.49621 0.22955 -0.83731
-0.0055406 0.0015874 0.429 -0.55285 0.24337 -0.79695
-0.0055406 0.0023811 0.429 -0.54996 0.20429 -0.80982
-0.0055535 0.0031822 0.43 -0.61045 0.22583 -0.75918
-0.0055664 0.003987 0.431 -0.68729 0.2361 -0.68694
-0.0055793 0.0047956 0.432 -0.72332 0.26874 -0.63607
-0.0055923 0.0056078 0.433 -0.73702 0.30481 -0.60324
-0.0056181 0.0064385 0.435 -0.65613 0.30292 -0.69119
-0.005631 0.0072599 0.436 -0.58642 0.31516 -0.74618
-0.005631 0.0080666 0.436 -0.62151 0.33498 -0.70818
-0.0056439 0.0088936 0.437 -0.6115 0.32929 -0.71947
-0.0056439 0.0097021 0.437 -0.59921 0.31925 -0.73419
-0.0056568 0.010535 0.438 -0.6334 0.29609 -0.71494
-0.0056568 0.011345 0.438 -0.56046 0.26901 -0.78327
-0.0056697 0.012183 0.439 -0.64182 0.23144 -0.7311
-0.0056956 0.013055 0.441 -0.74562 0.31234 -0.58864
-0.0057214 0.013933 0.443 -0.71523 0.34619 -0.60712
-0.0057343 0.014786 0.444 -0.7244 0.38076 -0.57468
-0.0057472 0.015643 0.445 -0.70823 0.41463 -0.5714
-0.0057472 0.016466 0.445 -0.61018 0.41751 -0.67333
-0.0058376 0.017562 0.452 -0.55686 -0.094267 -0.82524
-0.0058506 0.018438 0.453 -0.3988 -0.11908 -0.90927
-0.0058506 0.019277 0.453 -0.45154 -0.082908 -0.88839
-0.0058635 0.020159 0.454 -0.31789 -0.137 -0.93818
-0.0058635 0.020999 0.454 -0.34902 -0.10924 -0.93073
-0.0058635 0.021839 0.454 -0.35464 -0.091931 -0.93047
-0.0058764 0.022729 0.455 -0.32717 -0.10283 -0.93935
-0.0058764 0.023571 0.455 -0.3317 -0.098296 -0.93825
-0.0058764 0.024413 0.455 -0.32288 -0.10079 -0.94106
-0.0048487 -0.13533 0.438 0.11584 -0.60732 -0.78596
-0.0048487 -0.13452 0.438 0.074489 -0.61599 -0.78422
-0.0048487 -0.13371 0.438 0.016017 -0.62023 -0.78425
-0.0048376 -0.1326 0.437 -0.1305 -0.46398 -0.87618
-0.0048376 -0.13179 0.437 -0.12053 -0.43324 -0.89318
-0.0048376 -0.13098 0.437 -0.12064 -0.40268 -0.90735
-0.0048487 -0.13047 0.438 -0.1518 -0.554 -0.81856
-0.0048487 -0.12966 0.438 -0.18377 -0.51963 -0.8344
-0.0048487 -0.12885 0.438 -0.2033 -0.48084 -0.85291
-0.0048487 -0.12804 0.438 -0.21328 -0.43243 -0.87608
-0.0048487 -0.12723 0.438 -0.21339 -0.38104 -0.8996
-0.0048598 -0.1267 0.439 -0.21784 -0.52805 -0.8208
-0.0048598 -0.12589 0.439 -0.22673 -0.48932 -0.84212
-0.0048598 -0.12508 0.439 -0.21796 -0.45528 -0.86326
-0.0048598 -0.12427 0.439 -0.19368 -0.42245 -0.88545
-0.0048598 -0.12346 0.439 -0.15382 -0.38848 -0.90853
-0.0048598 -0.12264 0.439 -0.11319 -0.35539 -0.92784
-0.0048044 -0.069055 0.434 0.79138 0.32092 -0.52031
-0.0047934 -0.068094 0.433 0.78549 0.32828 -0.52463
-0.0047712 -0.066982 0.431 0.70546 0.27879 -0.65161
-0.0047491 -0.065084 0.429 0.66234 0.26243 -0.70174
-0.004738 -0.064141 0.428 0.62709 0.24133 -0.74062
-0.004738 -0.063349 0.428 0.64226 0.29722 -0.70652
-0.0047269 -0.062411 0.427 0.59039 0.29053 -0.75302
-0.0047159 -0.061476 0.426 0.52877 0.29793 -0.79476
-0.0047159 -0.060688 0.426 0.52297 0.32516 -0.7879
-0.0047048 -0.059759 0.425 0.48891 0.31788 -0.81235
-0.0047048 -0.058973 0.425 0.47537 0.32586 -0.81721
-0.0047048 -0.058187 0.425 0.45141 0.32342 -0.83164
-0.0046937 -0.057265 0.424 0.43005 0.31005 -0.8479
-0.0046937 -0.056481 0.424 0.41562 0.30431 -0.85712
-0.0046827 -0.055565 0.423 0.40612 0.29255 -0.86572
-0.0046827 -0.054783 0.423 0.38786 0.28593 -0.87625
-0.0046827 -0.054 0.423 0.36786 0.28168 -0.88619
-0.0046716 -0.053092 0.422 0.34002 0.27336 -0.89981
-0.0046716 -0.052311 0.422 0.30359 0.26987 -0.91379
-0.0046716 -0.05153 0.422 0.26762 0.26296 -0.92695
-0.0046605 -0.050629 0.421 0.22581 0.25907 -0.93909
-0.0046605 -0.04985 0.421 0.18666 0.25658 -0.94833
-0.0046605 -0.049071 0.421 0.14332 0.25848 -0.95533
-0.0046605 -0.048292 0.421 0.10539 0.25306 -0.96169
-0.0046605 -0.047513 0.421 0.0831 0.25168 -0.96424
-0.0046605 -0.046735 0.421 0.067842 0.24909 -0.9661
-0.0046605 -0.045956 0.421 0.039151 0.24658 -0.96833
-0.0046605 -0.045177 0.421 0.022695 0.24381 -0.96956
-0.0046605 -0.044398 0.421 0.0092816 0.2458 -0.96928
-0.0046605 -0.043619 0.421 -0.010323 0.24192 -0.97024
-0.0046605 -0.04284 0.421 -0.02787 0.24087 -0.97016
-0.0046605 -0.042061 0.421 -0.047459 0.23972 -0.96968
-0.0046605 -0.041282 0.421 -0.073156 0.23838 -0.96841
-0.0046605 -0.040503 0.421 -0.086542 0.23425 -0.96832
-0.0046605 -0.039724 0.421 -0.10891 0.23567 -0.96571
-0.0046605 -0.038945 0.421 -0.12217 0.2324 -0.96492
-0.0046716 -0.038257 0.422 -0.14424 0.22443 -0.96376
-0.0046716 -0.037476 0.422 -0.16738 0.21781 -0.96153
-0.0046716 -0.036696 0.422 -0.18519 0.21614 -0.95864
-0.0046716 -0.035915 0.422 -0.21055 0.21501 -0.95365
-0.0046716 -0.035134 0.422 -0.24516 0.20942 -0.94659
-0.0046716 -0.034353 0.422 -0.28942 0.21053 -0.93376
-0.0046716 -0.033573 0.422 -0.32986 0.20206 -0.92215
-0.0046827 -0.03287 0.423 -0.35916 0.1993 -0.91175
-0.0046827 -0.032087 0.423 -0.36168 0.1991 -0.9108
-0.0046827 -0.031304 0.423 -0.33931 0.19252 -0.92076
-0.0046937 -0.030594 0.424 -0.26791 0.19864 -0.94274
-0.0046937 -0.029809 0.424 -0.17703 0.20292 -0.96306
-0.0046937 -0.029025 0.424 -0.04536 0.21383 -0.97582
-0.0046937 -0.028241 0.424 0.095533 0.21307 -0.97235
-0.0046937 -0.027456 0.424 0.22522 0.20855 -0.95173
-0.0046937 -0.026672 0.424 0.32621 0.20975 -0.92173
-0.0046827 -0.025826 0.423 0.38363 0.20175 -0.90118
-0.0046827 -0.025043 0.423 0.4052 0.20063 -0.89194
-0.0046716 -0.024204 0.422 0.39686 0.19646 -0.89661
-0.0046716 -0.023423 0.422 0.37503 0.19658 -0.90593
-0.0046716 -0.022642 0.422 0.33761 0.2024 -0.91927
-0.0046716 -0.021861 0.422 0.3008 0.2013 -0.9322
-0.0046605 -0.021031 0.421 0.2638 0.20406 -0.94274
-0.0046605 -0.020252 0.421 0.23112 0.19712 -0.95275
-0.0046605 -0.019473 0.421 0.19147 0.19298 -0.96234
-0.0046605 -0.018694 0.421 0.15487 0.18533 -0.9704
-0.0046605 -0.017915 0.421 0.10541 0.1634 -0.98091
-0.0046605 -0.017136 0.421 0.052532 0.14878 -0.98747
-0.0046605 -0.016357 0.421 -0.0052629 0.1459 -0.98928
-0.0046605 -0.015578 0.421 -0.069293 0.14658 -0.98677
-0.0046605 -0.014799 0.421 -0.13776 0.13738 -0.98089
-0.0046605 -0.01402 0.421 -0.19644 0.13094 -0.97173
-0.0046605 -0.013241 0.421 -0.23681 0.12472 -0.96352
-0.0046605 -0.012463 0.421 -0.28148 0.12318 -0.95163
-0.0046605 -0.011684 0.421 -0.31999 0.11966 -0.93983
-0.0046716 -0.010931 0.422 -0.34842 0.11811 -0.92987
-0.0046716 -0.01015 0.422 -0.3829 0.12308 -0.91556
-0.0046716 -0.0093691 0.422 -0.41429 0.13994 -0.89932
-0.0046827 -0.0086087 0.423 -0.43258 0.15567 -0.88805
-0.0046827 -0.0078261 0.423 -0.45457 0.16097 -0.87605
-0.0046937 -0.0070601 0.424 -0.47056 0.16616 -0.86658
-0.0046937 -0.0062757 0.424 -0.49284 0.17251 -0.85285
-0.0047048 -0.0055042 0.425 -0.5045 0.18101 -0.84422
-0.0047048 -0.0047179 0.425 -0.50666 0.18582 -0.84188
-0.0047159 -0.0039408 0.426 -0.50373 0.19334 -0.84195
-0.0047159 -0.0031526 0.426 -0.49405 0.21052 -0.84356
-0.0047269 -0.00237 0.427 -0.48079 0.2202 -0.84874
-0.0047269 -0.00158 0.427 -0.47275 0.23128 -0.8503
-0.0047269 -0.00079001 0.427 -0.468 0.2321 -0.85271
-0.004738 0 0.428 -0.48426 0.23391 -0.84308
-0.004738 0.00079186 0.428 -0.511 0.2129 -0.8328
-0.004738 0.0015837 0.428 -0.51861 0.17185 -0.83756
-0.0047491 0.0023811 0.429 -0.57918 0.17809 -0.79551
-0.0047491 0.0031748 0.429 -0.52007 0.14827 -0.84115
-0.0047601 0.0039778 0.43 -0.59881 0.15921 -0.7849
-0.0047712 0.0047845 0.431 -0.68458 0.16047 -0.71105
-0.0047934 0.0056078 0.433 -0.74384 0.26231 -0.61473
-0.0048044 0.0064237 0.434 -0.71102 0.27058 -0.64903
-0.0048155 0.0072433 0.435 -0.65496 0.28916 -0.69815
-0.0048266 0.0080666 0.436 -0.60657 0.30713 -0.73331
-0.0048266 0.0088733 0.436 -0.61792 0.30677 -0.72392
-0.0048376 0.0097021 0.437 -0.61486 0.30673 -0.72654
-0.0048376 0.010511 0.437 -0.54887 0.29696 -0.78138
-0.0048487 0.011345 0.438 -0.61511 0.24989 -0.74779
-0.0048598 0.012183 0.439 -0.67849 0.23799 -0.695
-0.0048819 0.013055 0.441 -0.74922 0.31677 -0.58166
-0.004893 0.013902 0.442 -0.7218 0.32857 -0.60914
-0.0049151 0.014786 0.444 -0.67529 0.36813 -0.63911
-0.0049151 0.015608 0.444 -0.69336 0.37058 -0.618
-0.0049262 0.016466 0.445 -0.65804 0.41245 -0.62998
-0.0050148 0.0176 0.453 -0.32812 -0.15765 -0.93139
-0.0050148 0.018438 0.453 -0.40529 -0.12686 -0.90534
-0.0050258 0.019319 0.454 -0.2292 -0.15649 -0.96072
